ply
format ascii 1.0
comment Created by Open3D
element vertex 1268
property double x
property double y
property double z
property uchar red
property uchar green
property uchar blue
end_header
-0.184556 -0.0528023 -0.0245 0 100 0
-0.188125 -0.0397807 -0.0245 0 100 0
-0.195564 -0.0550184 -0.0245 0 100 0
-0.193466 -0.0881122 -0.0245 0 100 0
-0.187234 0.0773006 -0.0245 0 100 0
-0.167291 -0.108034 -0.0245 0 100 0
-0.195506 0.123309 -0.0245 0 100 0
-0.172585 -0.0485853 -0.0245 0 100 0
-0.189321 -0.0970562 -0.0245 0 100 0
-0.160654 0.105809 -0.0245 0 100 0
-0.177508 -0.0187181 -0.0245 0 100 0
-0.190097 0.0958524 -0.0245 0 100 0
-0.165961 0.0495952 -0.0245 0 100 0
-0.170653 -0.0286678 -0.0245 0 100 0
-0.170191 -0.0541774 -0.0245 0 100 0
-0.161877 -0.043924 -0.0245 0 100 0
-0.163236 -0.0638479 -0.0245 0 100 0
-0.199341 -0.0447172 -0.0245 0 100 0
-0.160673 0.0949721 -0.0245 0 100 0
-0.164637 0.0152987 -0.0245 0 100 0
-0.151722 0.0775886 -0.0245 0 100 0
-0.167206 -0.119986 -0.0245 0 100 0
-0.15416 0.00595537 -0.0245 0 100 0
-0.192665 0.0812218 -0.0245 0 100 0
-0.180386 0.0724216 -0.0245 0 100 0
-0.156459 -0.0876529 -0.0245 0 100 0
-0.198541 0.0774797 -0.0245 0 100 0
-0.178507 0.10124 -0.0245 0 100 0
-0.157354 -0.117031 -0.0245 0 100 0
-0.156334 -0.0423978 -0.0245 0 100 0
-0.182607 -0.0149487 -0.0245 0 100 0
-0.1629 -0.0714422 -0.0245 0 100 0
-0.189453 0.0689907 -0.0245 0 100 0
-0.168077 -0.0561481 -0.0245 0 100 0
-0.176275 -0.0350837 -0.0245 0 100 0
-0.197379 0.0895077 -0.0245 0 100 0
-0.152652 0.111026 -0.0245 0 100 0
-0.182906 0.0558714 -0.0245 0 100 0
-0.187003 0.061001 -0.0245 0 100 0
-0.158089 -0.0992846 -0.0245 0 100 0
-0.165632 0.00620883 -0.0245 0 100 0
-0.157063 -0.111918 -0.0245 0 100 0
-0.196496 -0.0247257 -0.0245 0 100 0
-0.195089 0.0714672 -0.0245 0 100 0
-0.16788 0.0379459 -0.0245 0 100 0
-0.157983 -0.119924 -0.0245 0 100 0
-0.155486 -0.0661726 -0.0245 0 100 0
-0.152699 0.095341 -0.0245 0 100 0
-0.198685 -0.00336485 -0.0245 0 100 0
-0.188054 -0.100405 -0.0245 0 100 0
-0.190857 0.0248186 -0.0245 0 100 0
-0.177417 -0.0597323 -0.0245 0 100 0
-0.161279 -0.0423411 -0.0245 0 100 0
-0.179802 -0.0378281 -0.0245 0 100 0
-0.160628 0.033403 -0.0245 0 100 0
-0.170826 -0.0276619 -0.0245 0 100 0
-0.161713 -0.0802621 -0.0245 0 100 0
-0.171501 -0.0198299 -0.0245 0 100 0
-0.183717 -0.107491 -0.0245 0 100 0
-0.157699 0.117227 -0.0245 0 100 0
-0.166636 -0.0536635 -0.0245 0 100 0
-0.163158 0.0218606 -0.0245 0 100 0
-0.191247 0.0779023 -0.0245 0 100 0
-0.188127 -0.00467245 -0.0245 0 100 0
-0.168452 0.0800416 -0.0245 0 100 0
-0.152752 -0.0626572 -0.0245 0 100 0
-0.163087 -0.059749 -0.0245 0 100 0
-0.155759 0.0730913 -0.0245 0 100 0
-0.174721 -0.111882 -0.0245 0 100 0
-0.155126 0.112856 -0.0245 0 100 0
-0.165176 0.0480994 -0.0245 0 100 0
-0.190113 -0.0554842 -0.0245 0 100 0
-0.190268 -0.0673642 -0.0245 0 100 0
-0.182263 0.0457379 -0.0245 0 100 0
-0.162611 0.0805222 -0.0245 0 100 0
-0.160733 0.0530635 -0.0245 0 100 0
-0.181159 0.0707751 -0.0245 0 100 0
-0.173978 -0.112935 -0.0245 0 100 0
-0.152599 0.00318214 -0.0245 0 100 0
-0.191792 0.0917957 -0.0245 0 100 0
-0.155718 -0.053543 -0.0245 0 100 0
-0.197049 -0.0148716 -0.0245 0 100 0
-0.18695 -0.0312734 -0.0245 0 100 0
-0.172423 0.0862057 -0.0245 0 100 0
-0.169447 -0.026141 -0.0245 0 100 0
-0.157684 0.0331613 -0.0245 0 100 0
-0.186569 -0.0892102 -0.0245 0 100 0
-0.190135 -0.0152041 -0.0245 0 100 0
-0.150627 -0.0391058 -0.0245 0 100 0
-0.186167 -0.103847 -0.0245 0 100 0
-0.191972 0.0586924 -0.0245 0 100 0
-0.190738 0.0119839 -0.0245 0 100 0
-0.160808 0.0901073 -0.0245 0 100 0
-0.165442 0.00890517 -0.0245 0 100 0
-0.193721 -0.0691754 -0.0245 0 100 0
-0.187126 0.00980824 -0.0245 0 100 0
-0.162385 -0.000872935 -0.0245 0 100 0
-0.177633 0.00356428 -0.0245 0 100 0
-0.167108 0.117297 -0.0245 0 100 0
-0.158045 -0.0619664 -0.0245 0 100 0
-0.178571 0.0714746 -0.0245 0 100 0
-0.169439 -0.122319 -0.0245 0 100 0
-0.16974 -0.0555116 -0.0245 0 100 0
-0.169835 0.0252149 -0.0245 0 100 0
-0.186821 -0.121206 -0.0245 0 100 0
-0.162823 0.00026094 -0.0245 0 100 0
-0.194117 -0.00771215 -0.0245 0 100 0
-0.177089 0.0443672 -0.0245 0 100 0
-0.164536 -0.0474299 -0.0245 0 100 0
-0.174016 0.0573721 -0.0245 0 100 0
-0.166243 -0.119541 -0.0245 0 100 0
-0.189123 0.122794 -0.0245 0 100 0
-0.182426 -0.0802727 -0.0245 0 100 0
-0.158586 0.107316 -0.0245 0 100 0
-0.195068 -0.040471 -0.0245 0 100 0
-0.171613 -0.0310661 -0.0245 0 100 0
-0.170424 -0.104026 -0.0245 0 100 0
-0.151021 0.01299 -0.0245 0 100 0
-0.173135 -0.0489446 -0.0245 0 100 0
-0.166827 -0.123868 -0.0245 0 100 0
-0.182635 -0.0982844 -0.0245 0 100 0
-0.198883 0.00870617 -0.0245 0 100 0
-0.179038 0.0410575 0.0245 0 100 0
-0.15806 0.0274301 0.0245 0 100 0
-0.173317 -0.0837408 0.0245 0 100 0
-0.165986 -0.0124608 0.0245 0 100 0
-0.198438 0.109789 0.0245 0 100 0
-0.177107 -0.076695 0.0245 0 100 0
-0.159161 -0.0176977 0.0245 0 100 0
-0.198894 -0.0223354 0.0245 0 100 0
-0.191716 -0.0824611 0.0245 0 100 0
-0.182754 0.0415535 0.0245 0 100 0
-0.174198 -0.123191 0.0245 0 100 0
-0.178019 0.0741714 0.0245 0 100 0
-0.156457 -0.117527 0.0245 0 100 0
-0.188766 0.116837 0.0245 0 100 0
-0.194111 -0.0654828 0.0245 0 100 0
-0.196174 -0.0478479 0.0245 0 100 0
-0.162787 0.105083 0.0245 0 100 0
-0.16073 0.0967059 0.0245 0 100 0
-0.187922 -0.123593 0.0245 0 100 0
-0.190587 -0.0894346 0.0245 0 100 0
-0.198081 -0.0109471 0.0245 0 100 0
-0.177587 -0.0923661 0.0245 0 100 0
-0.152391 0.00268975 0.0245 0 100 0
-0.153255 0.0412825 0.0245 0 100 0
-0.180584 0.0045079 0.0245 0 100 0
-0.166691 -0.046352 0.0245 0 100 0
-0.18802 -0.0839883 0.0245 0 100 0
-0.178874 -0.0524651 0.0245 0 100 0
-0.191432 0.121406 0.0245 0 100 0
-0.173161 0.0714547 0.0245 0 100 0
-0.186357 0.0865629 0.0245 0 100 0
-0.197817 -0.00645531 0.0245 0 100 0
-0.160923 0.122622 0.0245 0 100 0
-0.152933 -0.11496 0.0245 0 100 0
-0.181168 0.105716 0.0245 0 100 0
-0.15751 -0.0701318 0.0245 0 100 0
-0.181231 0.0713593 0.0245 0 100 0
-0.15894 0.0809786 0.0245 0 100 0
-0.155986 -0.0959344 0.0245 0 100 0
-0.196399 0.122187 0.0245 0 100 0
-0.192366 -0.0800624 0.0245 0 100 0
-0.16741 -0.0618333 0.0245 0 100 0
-0.188053 0.121254 0.0245 0 100 0
-0.153989 -0.0226621 0.0245 0 100 0
-0.191753 0.0748086 0.0245 0 100 0
-0.181423 -0.113039 0.0245 0 100 0
-0.173469 0.0106965 0.0245 0 100 0
-0.152936 -0.0797039 0.0245 0 100 0
-0.155857 0.0379914 0.0245 0 100 0
-0.19846 0.0139657 0.0245 0 100 0
-0.166704 0.113326 0.0245 0 100 0
-0.185019 -0.0458594 0.0245 0 100 0
-0.168472 -0.00981368 0.0245 0 100 0
-0.162985 0.0483048 0.0245 0 100 0
-0.181689 -0.0291716 0.0245 0 100 0
-0.178702 0.0355604 0.0245 0 100 0
-0.178608 -0.0795869 0.0245 0 100 0
-0.164382 -0.0235747 0.0245 0 100 0
-0.164195 0.0416087 0.0245 0 100 0
-0.190694 0.0785046 0.0245 0 100 0
-0.193352 -0.0986484 0.0245 0 100 0
-0.18265 0.0848938 0.0245 0 100 0
-0.188751 0.0155442 0.0245 0 100 0
-0.157389 0.0143856 0.0245 0 100 0
-0.174365 0.080507 0.0245 0 100 0
-0.158924 0.067656 0.0245 0 100 0
-0.168237 0.0395879 0.0245 0 100 0
-0.198533 0.0818202 0.0245 0 100 0
-0.167896 0.111033 0.0245 0 100 0
-0.176031 0.122145 0.0245 0 100 0
-0.188921 -0.0340254 0.0245 0 100 0
-0.151944 0.101552 0.0245 0 100 0
-0.179567 0.0730162 0.0245 0 100 0
-0.179351 -0.0484038 0.0245 0 100 0
-0.174788 -0.000782562 0.0245 0 100 0
-0.155052 -0.0406077 0.0245 0 100 0
-0.1792 -0.0808667 0.0245 0 100 0
-0.152076 0.0820476 0.0245 0 100 0
-0.193852 -0.0854572 0.0245 0 100 0
-0.16564 0.0121532 0.0245 0 100 0
-0.155466 0.0850986 0.0245 0 100 0
-0.19534 0.0539038 0.0245 0 100 0
-0.176268 0.107493 0.0245 0 100 0
-0.16966 -0.112637 0.0245 0 100 0
-0.19383 -0.00323816 0.0245 0 100 0
-0.169602 -0.108436 0.0245 0 100 0
-0.187701 -0.109318 0.0245 0 100 0
-0.162928 0.070338 0.0245 0 100 0
-0.186479 0.0126919 0.0245 0 100 0
-0.157928 0.0361995 0.0245 0 100 0
-0.198727 0.0694037 0.0245 0 100 0
-0.159503 0.0696157 0.0245 0 100 0
-0.163433 0.0217738 0.0245 0 100 0
-0.177553 -0.0906312 0.0245 0 100 0
-0.188174 0.0844845 0.0245 0 100 0
-0.180991 0.0629519 0.0245 0 100 0
-0.161716 0.124189 0.0245 0 100 0
-0.19487 0.106249 0.0245 0 100 0
-0.155022 -0.0287532 0.0245 0 100 0
-0.16417 -0.0221335 0.0245 0 100 0
-0.186768 0.0316743 0.0245 0 100 0
-0.156328 -0.106038 0.0245 0 100 0
-0.174853 -0.0928702 0.0245 0 100 0
-0.175024 0.054812 0.0245 0 100 0
-0.158308 -0.0528223 0.0245 0 100 0
-0.177866 0.0241156 0.0245 0 100 0
-0.169559 -0.0410085 0.0245 0 100 0
-0.196079 -0.0499278 0.0245 0 100 0
-0.158214 0.0284572 0.0245 0 100 0
-0.180217 0.113201 0.0245 0 100 0
-0.176924 -0.0429923 0.0245 0 100 0
-0.155828 -0.106723 0.0245 0 100 0
-0.185991 -0.076342 0.0245 0 100 0
-0.197983 0.0238083 0.0245 0 100 0
-0.153453 -0.046269 0.0245 0 100 0
-0.167949 -0.00791649 0.0245 0 100 0
-0.190811 0.100363 0.0245 0 100 0
-0.180338 0.0583478 0.0245 0 100 0
-0.197745 -0.100654 0.0245 0 100 0
-0.191145 -0.120848 0.0245 0 100 0
-0.155879 -0.0424183 0.0245 0 100 0
-0.187782 -0.075568 0.0245 0 100 0
-0.1995 0.0636847 0.0172001 0 100 0
-0.1995 -0.0907262 -0.00232674 0 100 0
-0.1995 0.0929941 -0.00834376 0 100 0
-0.1995 0.010977 0.0229224 0 100 0
-0.1995 0.0447953 -0.024177 0 100 0
-0.1995 0.0112146 -0.00193361 0 100 0
-0.1995 -0.123991 0.0143633 0 100 0
-0.1995 -0.065952 0.0085959 0 100 0
-0.1995 0.111455 -0.011102 0 100 0
-0.1995 -0.107085 0.00986607 0 100 0
-0.1995 -0.0558432 -0.0189847 0 100 0
-0.1995 -0.100195 -0.0166706 0 100 0
-0.1995 -0.0395027 0.0120458 0 100 0
-0.1995 -0.0603433 0.0196722 0 100 0
-0.1995 0.0168917 -0.00486824 0 100 0
-0.1995 -0.0972103 -0.00373668 0 100 0
-0.1995 0.101354 0.0125989 0 100 0
-0.1995 0.0352309 -0.0112158 0 100 0
-0.1995 -0.0423522 -0.016791 0 100 0
-0.1995 0.123582 -0.00578673 0 100 0
-0.1995 0.0438428 0.012153 0 100 0
-0.1995 0.0622696 0.00623515 0 100 0
-0.1995 0.0886677 0.0031898 0 100 0
-0.1995 -0.0884495 0.00352204 0 100 0
-0.1995 -0.0625642 0.00449746 0 100 0
-0.1995 0.0162603 0.00303209 0 100 0
-0.1995 0.0541097 0.00286865 0 100 0
-0.1995 0.00222384 -0.0165269 0 100 0
-0.1995 -0.0848587 0.0218397 0 100 0
-0.1995 0.0496429 0.023257 0 100 0
-0.1995 0.0896641 0.0176659 0 100 0
-0.1995 0.118481 0.00601867 0 100 0
-0.1995 0.0145208 0.0146507 0 100 0
-0.1995 -0.0254678 0.0102582 0 100 0
-0.1995 0.0578506 -0.0238525 0 100 0
-0.1995 -0.0832422 0.0220031 0 100 0
-0.1995 -0.0550066 0.018212 0 100 0
-0.1995 0.0405708 0.0165023 0 100 0
-0.1995 0.0688161 -0.00883502 0 100 0
-0.1995 0.00662467 -0.0163064 0 100 0
-0.1995 0.0410546 0.00600781 0 100 0
-0.1995 -0.0382776 0.00415951 0 100 0
-0.1995 -0.0102772 -0.00098279 0 100 0
-0.1995 0.0770844 -0.00658382 0 100 0
-0.1995 0.103019 0.0209415 0 100 0
-0.1995 0.120918 -0.0225038 0 100 0
-0.1995 0.0687328 0.00314241 0 100 0
-0.1995 -0.101937 0.0176444 0 100 0
-0.1995 0.00756516 0.0181346 0 100 0
-0.1995 0.00643401 -0.023906 0 100 0
-0.1995 -0.0731288 0.00372277 0 100 0
-0.1995 0.0558097 0.00485046 0 100 0
-0.1995 0.0457734 0.0167042 0 100 0
-0.1995 -0.102623 -0.0080766 0 100 0
-0.1995 -0.0525775 0.0123209 0 100 0
-0.1995 0.118969 0.02166 0 100 0
-0.1995 0.052657 -0.0192134 0 100 0
-0.1995 -0.080063 -0.00716872 0 100 0
-0.1995 -0.0497576 -0.00625606 0 100 0
-0.1995 -0.108197 0.0240476 0 100 0
-0.1995 0.0491335 0.0188615 0 100 0
-0.1995 0.0812155 -0.0192064 0 100 0
-0.1995 0.0226116 -0.00544251 0 100 0
-0.1995 0.0736885 -0.0223029 0 100 0
-0.1995 -0.0752501 0.0143319 0 100 0
-0.1995 0.109267 -0.0178086 0 100 0
-0.1995 0.0827099 -0.0220032 0 100 0
-0.1995 -0.0455228 0.00374563 0 100 0
-0.1995 -0.0641534 0.0207848 0 100 0
-0.1995 -0.0804784 -0.0191035 0 100 0
-0.1995 0.0991627 0.00425894 0 100 0
-0.1995 -0.0484499 0.00315002 0 100 0
-0.1995 0.0416161 -0.0167879 0 100 0
-0.1995 0.101194 -0.0242112 0 100 0
-0.1995 0.036372 -0.00426727 0 100 0
-0.1995 -0.0786728 0.00263256 0 100 0
-0.1995 -0.0613204 -0.013568 0 100 0
-0.1995 0.0538278 -0.00522795 0 100 0
-0.1995 -0.0950846 0.0101049 0 100 0
-0.1995 -0.0872307 -0.0207368 0 100 0
-0.1995 0.0540263 0.000689819 0 100 0
-0.1995 -0.089414 0.0131741 0 100 0
-0.1995 -0.0944993 -0.0155672 0 100 0
-0.1995 0.0694666 0.00651782 0 100 0
-0.1995 0.0402967 0.00390893 0 100 0
-0.1995 -0.104971 0.0002072 0 100 0
-0.1995 -0.0697584 -0.0110682 0 100 0
-0.1995 -0.0998456 -0.0189306 0 100 0
-0.1995 -0.0847975 -0.0152923 0 100 0
-0.1995 0.122132 0.0112265 0 100 0
-0.1995 -0.120535 -0.0142437 0 100 0
-0.1995 -0.118388 0.0119826 0 100 0
-0.1995 -0.0702906 0.0110828 0 100 0
-0.1995 -0.00506233 -0.00436868 0 100 0
-0.1995 -0.0262725 -0.00473637 0 100 0
-0.1995 -0.0882321 -0.020091 0 100 0
-0.1995 0.0633678 -0.00289085 0 100 0
-0.1995 0.118503 0.0238464 0 100 0
-0.1995 -0.0684486 0.00470029 0 100 0
-0.1995 0.0622298 -0.0120085 0 100 0
-0.1995 0.0645135 0.00165602 0 100 0
-0.1995 -0.051723 -0.0143483 0 100 0
-0.1995 0.0511185 0.0185743 0 100 0
-0.1995 0.0997417 0.0194895 0 100 0
-0.1995 -0.0738244 -0.0181929 0 100 0
-0.1995 -0.021175 0.000139445 0 100 0
-0.1995 -0.0140095 0.0109745 0 100 0
-0.1995 0.0915775 0.0144665 0 100 0
-0.1995 0.0307715 -0.00909955 0 100 0
-0.1995 0.0258431 0.0174196 0 100 0
-0.1995 -0.0497486 -0.0242583 0 100 0
-0.1995 0.0443784 -0.00444468 0 100 0
-0.1995 0.00815564 0.00547204 0 100 0
-0.1995 0.0526373 0.0197502 0 100 0
-0.1995 -0.0847924 0.0122532 0 100 0
-0.1995 -0.0748066 0.0117768 0 100 0
-0.1995 -0.0442372 -0.0189827 0 100 0
-0.1995 0.0303663 0.0236048 0 100 0
-0.1995 0.100636 -0.0244667 0 100 0
-0.1995 0.105683 0.005535 0 100 0
-0.1995 -0.0280537 -0.0195569 0 100 0
-0.1995 -0.0817543 -0.00510228 0 100 0
-0.1505 -0.0399396 -0.00425174 0 100 0
-0.1505 0.026101 0.00608704 0 100 0
-0.1505 -0.0964699 0.0137872 0 100 0
-0.1505 -0.0899242 0.0192494 0 100 0
-0.1505 0.00658307 -0.0200859 0 100 0
-0.1505 -0.111955 0.0230559 0 100 0
-0.1505 -0.117352 -0.0222641 0 100 0
-0.1505 -0.0337742 -0.00505213 0 100 0
-0.1505 -0.0945939 -0.00542209 0 100 0
-0.1505 0.0887314 0.00643665 0 100 0
-0.1505 0.0454882 0.0214554 0 100 0
-0.1505 -0.0285983 -0.0103549 0 100 0
-0.1505 0.0490364 0.0109904 0 100 0
-0.1505 -0.0281185 0.00450258 0 100 0
-0.1505 -0.0960248 0.0194325 0 100 0
-0.1505 -0.123702 0.0038716 0 100 0
-0.1505 -0.0950991 -0.0230601 0 100 0
-0.1505 -0.0239216 0.00602916 0 100 0
-0.1505 0.010852 -0.00471136 0 100 0
-0.1505 0.0652979 0.00251702 0 100 0
-0.1505 0.103072 0.0128917 0 100 0
-0.1505 -0.0417671 -0.00156763 0 100 0
-0.1505 -0.0342678 -0.0186554 0 100 0
-0.1505 -0.111235 0.00536311 0 100 0
-0.1505 -0.0995779 -0.0037336 0 100 0
-0.1505 0.00650728 -0.0232569 0 100 0
-0.1505 0.0387052 -0.0242682 0 100 0
-0.1505 0.12441 0.00550628 0 100 0
-0.1505 -0.0953636 -0.0191321 0 100 0
-0.1505 -0.120176 0.0121095 0 100 0
-0.1505 -0.0618901 -0.0142161 0 100 0
-0.1505 -0.0603616 -0.023212 0 100 0
-0.1505 -0.0586378 0.0115227 0 100 0
-0.1505 -0.0916824 -0.0136988 0 100 0
-0.1505 0.114734 0.0241477 0 100 0
-0.1505 0.0666151 -0.00932152 0 100 0
-0.1505 0.118354 0.0120206 0 100 0
-0.1505 -0.016803 0.0130659 0 100 0
-0.1505 0.0448792 0.0200983 0 100 0
-0.1505 -0.0807605 -0.00954541 0 100 0
-0.1505 0.120556 -0.01811 0 100 0
-0.1505 -0.102727 -0.00722157 0 100 0
-0.1505 -0.00221387 -0.00379351 0 100 0
-0.1505 0.0583678 -0.00144316 0 100 0
-0.1505 0.0372213 -0.00895776 0 100 0
-0.1505 -0.0309361 0.00951206 0 100 0
-0.1505 0.0544482 -0.0221489 0 100 0
-0.1505 0.00834681 0.00185279 0 100 0
-0.1505 -0.0318486 0.013127 0 100 0
-0.1505 -0.0605901 0.0178592 0 100 0
-0.1505 0.0289342 -0.0138611 0 100 0
-0.1505 0.113233 -0.0079538 0 100 0
-0.1505 -0.0689268 -0.0198376 0 100 0
-0.1505 -0.0244726 0.0177847 0 100 0
-0.1505 -0.062502 0.0107827 0 100 0
-0.1505 0.0350307 -0.00728193 0 100 0
-0.1505 -0.0132637 -0.0113705 0 100 0
-0.1505 -0.103603 -0.0127681 0 100 0
-0.1505 -0.0735113 -0.00861837 0 100 0
-0.1505 -0.0668776 -0.00224847 0 100 0
-0.1505 0.0290415 -0.0236742 0 100 0
-0.1505 0.02517 -0.00348723 0 100 0
-0.1505 0.051868 -0.0113148 0 100 0
-0.1505 0.0200728 -0.0199197 0 100 0
-0.1505 0.0373117 0.0190635 0 100 0
-0.1505 0.0322529 0.00235733 0 100 0
-0.1505 -0.0838302 -0.0130574 0 100 0
-0.1505 -0.0379441 0.000314427 0 100 0
-0.1505 -0.0796756 0.00763819 0 100 0
-0.1505 0.0580638 -0.0175949 0 100 0
-0.1505 0.122734 0.0199404 0 100 0
-0.1505 -0.106117 -0.00282275 0 100 0
-0.1505 0.0231883 0.0100122 0 100 0
-0.1505 -0.0623542 0.00198051 0 100 0
-0.1505 0.0452916 0.0172713 0 100 0
-0.1505 0.110991 0.00307295 0 100 0
-0.1505 -0.0149 0.0148901 0 100 0
-0.1505 0.104329 -0.01343 0 100 0
-0.1505 -0.0384877 -0.0210969 0 100 0
-0.1505 -0.107687 0.00369903 0 100 0
-0.1505 -0.045691 0.0114994 0 100 0
-0.1505 0.0532188 -0.00526333 0 100 0
-0.1505 0.0462169 0.0134681 0 100 0
-0.1505 0.05845 -0.0051648 0 100 0
-0.1505 0.0027185 -0.020914 0 100 0
-0.1505 -0.120651 0.0047853 0 100 0
-0.1505 0.0663284 0.00556306 0 100 0
-0.1505 -0.0111069 -0.00717162 0 100 0
-0.1505 0.0175751 -0.0200907 0 100 0
-0.1505 0.0843501 0.0119979 0 100 0
-0.1505 -0.0661008 0.00964053 0 100 0
-0.1505 0.0876722 0.0105192 0 100 0
-0.1505 0.0635232 0.00383472 0 100 0
-0.1505 0.0815087 -0.0211073 0 100 0
-0.1505 -0.0503364 -0.00295416 0 100 0
-0.1505 -0.000348226 0.0171896 0 100 0
-0.1505 0.0594646 -0.0129242 0 100 0
-0.1505 0.0575382 -0.00230916 0 100 0
-0.1505 -0.00139142 -0.00343427 0 100 0
-0.1505 -0.116102 0.019136 0 100 0
-0.1505 0.0827444 0.0151752 0 100 0
-0.1505 0.0139904 0.0138743 0 100 0
-0.1505 0.0429457 0.0176603 0 100 0
-0.1505 0.111197 -0.00906658 0 100 0
-0.1505 0.112261 0.00941925 0 100 0
-0.1505 0.0578577 -0.0108762 0 100 0
-0.1505 0.0554985 -0.0103501 0 100 0
-0.1505 -0.00230071 -0.0213979 0 100 0
-0.1505 -0.0733954 0.00907342 0 100 0
-0.1505 0.0777377 -0.00931216 0 100 0
-0.1505 0.00221377 -0.012529 0 100 0
-0.1505 -0.0251285 0.0140676 0 100 0
-0.1505 0.00384536 0.00240701 0 100 0
-0.1505 -0.0211385 -0.0151591 0 100 0
-0.1505 -0.11492 0.0147478 0 100 0
-0.1505 0.105264 -0.00951476 0 100 0
-0.1505 0.0918403 -0.0161094 0 100 0
-0.1505 -0.0528601 0.0230552 0 100 0
-0.1505 0.024143 -0.0187694 0 100 0
-0.1505 0.0364008 0.0149135 0 100 0
-0.1505 -0.0510395 -0.0225845 0 100 0
-0.1505 0.0333769 -0.000339112 0 100 0
-0.192706 0.1245 0.0192381 0 100 0
-0.15583 0.1245 0.0131462 0 100 0
-0.18181 0.1245 0.0225213 0 100 0
-0.187658 0.1245 0.00553703 0 100 0
-0.173086 0.1245 -0.00501054 0 100 0
-0.187682 0.1245 0.00969802 0 100 0
-0.168747 0.1245 0.00687876 0 100 0
-0.186582 0.1245 0.0093782 0 100 0
-0.154507 0.1245 0.00333098 0 100 0
-0.174751 0.1245 -0.0137746 0 100 0
-0.1554 0.1245 0.0191842 0 100 0
-0.193412 0.1245 -0.0102576 0 100 0
-0.18655 0.1245 0.01027 0 100 0
-0.197761 0.1245 0.0153127 0 100 0
-0.191641 0.1245 -0.0220464 0 100 0
-0.167509 0.1245 -0.0110266 0 100 0
-0.173144 0.1245 0.00907941 0 100 0
-0.195637 0.1245 -0.0043942 0 100 0
-0.177122 0.1245 0.00576448 0 100 0
-0.156708 0.1245 0.0196526 0 100 0
-0.177165 0.1245 2.60282e-05 0 100 0
-0.156 0.1245 0.0218723 0 100 0
-0.189463 0.1245 -0.0126329 0 100 0
-0.176744 0.1245 0.0114755 0 100 0
-0.176096 -0.1245 -0.0227023 0 100 0
-0.180525 -0.1245 -0.0106621 0 100 0
-0.172591 -0.1245 -0.0196812 0 100 0
-0.191012 -0.1245 0.0149288 0 100 0
-0.153382 -0.1245 -0.0163694 0 100 0
-0.183179 -0.1245 0.0114535 0 100 0
-0.191419 -0.1245 0.021905 0 100 0
-0.168658 -0.1245 -0.00274559 0 100 0
-0.179928 -0.1245 0.00826583 0 100 0
-0.151195 -0.1245 -0.00470052 0 100 0
-0.190761 -0.1245 0.0188323 0 100 0
-0.17791 -0.1245 0.00322025 0 100 0
-0.193104 -0.1245 -0.0228353 0 100 0
-0.154603 -0.1245 0.0196648 0 100 0
-0.166803 -0.1245 0.00140308 0 100 0
-0.163986 -0.1245 0.00175197 0 100 0
-0.19833 -0.1245 -0.0174079 0 100 0
-0.198869 -0.1245 -0.0221604 0 100 0
-0.153577 -0.1245 0.00280789 0 100 0
-0.152706 -0.1245 -0.000179704 0 100 0
-0.170216 -0.1245 -0.0138399 0 100 0
-0.157441 -0.1245 -0.00807779 0 100 0
-0.159937 -0.1245 -0.00222544 0 100 0
-0.175416 -0.1245 -0.0155325 0 100 0
0.00862598 0.101872 -0.0245 0 100 0
0.198714 0.115254 -0.0245 0 100 0
-0.13369 0.114883 -0.0245 0 100 0
-0.130412 0.0952384 -0.0245 0 100 0
0.0580899 0.093985 -0.0245 0 100 0
-0.0423167 0.108263 -0.0245 0 100 0
0.0547737 0.103282 -0.0245 0 100 0
0.140802 0.0906928 -0.0245 0 100 0
0.124371 0.105286 -0.0245 0 100 0
0.0860681 0.101475 -0.0245 0 100 0
0.119578 0.0759995 -0.0245 0 100 0
-0.0382271 0.0855909 -0.0245 0 100 0
0.0671351 0.0806955 -0.0245 0 100 0
0.160282 0.120139 -0.0245 0 100 0
-0.138563 0.101295 -0.0245 0 100 0
-0.148245 0.118301 -0.0245 0 100 0
0.0737597 0.0780256 -0.0245 0 100 0
-0.0722662 0.122201 -0.0245 0 100 0
0.0323903 0.0961445 -0.0245 0 100 0
0.139086 0.118604 -0.0245 0 100 0
-0.0888411 0.0832018 -0.0245 0 100 0
0.112707 0.0916819 -0.0245 0 100 0
0.163624 0.10485 -0.0245 0 100 0
-0.130941 0.0874616 -0.0245 0 100 0
0.152641 0.106102 -0.0245 0 100 0
-0.130494 0.0931382 -0.0245 0 100 0
0.171946 0.108595 -0.0245 0 100 0
-0.0215882 0.0782081 -0.0245 0 100 0
0.120369 0.117727 -0.0245 0 100 0
-0.0696403 0.10805 -0.0245 0 100 0
0.0143726 0.124394 -0.0245 0 100 0
0.164034 0.103601 -0.0245 0 100 0
0.112021 0.0972099 -0.0245 0 100 0
-0.0933699 0.114578 -0.0245 0 100 0
0.0389181 0.122988 -0.0245 0 100 0
0.0610029 0.0972077 -0.0245 0 100 0
0.139491 0.10767 -0.0245 0 100 0
-0.131771 0.111022 -0.0245 0 100 0
0.164917 0.0991972 -0.0245 0 100 0
-0.105403 0.112425 -0.0245 0 100 0
-0.0218843 0.108998 -0.0245 0 100 0
-0.0996715 0.0955747 -0.0245 0 100 0
0.0449878 0.117771 -0.0245 0 100 0
0.173741 0.12133 -0.0245 0 100 0
-0.0278245 0.0777688 -0.0245 0 100 0
0.19052 0.117872 -0.0245 0 100 0
0.0133521 0.119802 -0.0245 0 100 0
-0.000275074 0.120122 -0.0245 0 100 0
0.147544 0.11972 -0.0245 0 100 0
0.0184545 0.0872037 -0.0245 0 100 0
0.0558227 0.0939774 -0.0245 0 100 0
0.0172238 0.105889 -0.0245 0 100 0
-0.0213849 0.115464 -0.0245 0 100 0
-0.137857 0.101104 -0.0245 0 100 0
-0.07494 0.0841204 -0.0245 0 100 0
0.135636 0.124046 -0.0245 0 100 0
-0.114423 0.121814 -0.0245 0 100 0
-0.115571 0.119903 -0.0245 0 100 0
0.0388956 0.0870093 -0.0245 0 100 0
-0.0976481 0.120539 -0.0245 0 100 0
0.0531079 0.102856 -0.0245 0 100 0
0.134478 0.0898489 -0.0245 0 100 0
0.0227359 0.102526 -0.0245 0 100 0
0.124589 0.121698 -0.0245 0 100 0
-0.0821117 0.118125 -0.0245 0 100 0
0.143111 0.120816 -0.0245 0 100 0
0.0148425 0.103989 -0.0245 0 100 0
0.0103948 0.104846 -0.0245 0 100 0
0.181525 0.0977599 -0.0245 0 100 0
-0.0907082 0.120153 -0.0245 0 100 0
-0.125609 0.0916244 -0.0245 0 100 0
-0.0998298 0.122984 -0.0245 0 100 0
0.0359895 0.0880804 -0.0245 0 100 0
0.0906765 0.0886428 -0.0245 0 100 0
0.10076 0.113873 -0.0245 0 100 0
-0.118658 0.120115 -0.0245 0 100 0
0.159242 0.0998533 -0.0245 0 100 0
-0.0385516 0.108625 -0.0245 0 100 0
0.139508 0.0845216 -0.0245 0 100 0
0.0648706 0.0775665 -0.0245 0 100 0
0.0014327 0.0909118 -0.0245 0 100 0
0.0299161 0.0863482 -0.0245 0 100 0
0.180933 0.0763137 -0.0245 0 100 0
-0.130039 0.104105 -0.0245 0 100 0
-0.0896335 0.10777 -0.0245 0 100 0
0.08931 0.0781224 -0.0245 0 100 0
0.13043 0.0773208 -0.0245 0 100 0
0.0467471 0.0979507 -0.0245 0 100 0
0.00828623 0.103789 -0.0245 0 100 0
-0.139002 0.0946614 -0.0245 0 100 0
-0.00717665 0.0804002 -0.0245 0 100 0
0.141796 0.0782036 -0.0245 0 100 0
0.057038 0.0789726 -0.0245 0 100 0
0.0270125 0.108726 -0.0245 0 100 0
0.0205338 0.0931842 -0.0245 0 100 0
0.0873788 0.120369 -0.0245 0 100 0
0.0967515 0.0834957 -0.0245 0 100 0
0.170013 0.116865 -0.0245 0 100 0
-0.0306292 0.0839512 -0.0245 0 100 0
0.0994708 0.0829438 -0.0245 0 100 0
-0.0422441 0.0854475 -0.0245 0 100 0
-0.027038 0.113183 -0.0245 0 100 0
-0.0577241 0.120156 -0.0245 0 100 0
0.124821 0.100779 -0.0245 0 100 0
-0.0639685 0.111151 -0.0245 0 100 0
0.134625 0.0970751 -0.0245 0 100 0
0.172163 0.0979572 -0.0245 0 100 0
0.0164414 0.102869 -0.0245 0 100 0
0.00986262 0.117149 -0.0245 0 100 0
0.159341 0.0948988 -0.0245 0 100 0
-0.0749652 0.0772076 -0.0245 0 100 0
0.135629 0.0915672 -0.0245 0 100 0
-0.078115 0.091921 -0.0245 0 100 0
0.139881 0.0947532 -0.0245 0 100 0
-0.0194327 0.11215 -0.0245 0 100 0
0.0938046 0.0764786 -0.0245 0 100 0
0.121694 0.0805584 -0.0245 0 100 0
0.0319466 0.109817 -0.0245 0 100 0
-0.134333 0.0967106 -0.0245 0 100 0
0.0722211 0.0873527 -0.0245 0 100 0
-0.00665629 0.0842281 -0.0245 0 100 0
-0.135054 0.100526 -0.0245 0 100 0
-0.0734844 0.112874 -0.0245 0 100 0
-0.112022 0.0881492 -0.0245 0 100 0
0.0777705 0.0918431 -0.0245 0 100 0
-0.0940325 0.0916606 -0.0245 0 100 0
0.0215659 0.122331 -0.0245 0 100 0
-0.0965173 0.113362 -0.0245 0 100 0
0.0718848 0.0895236 -0.0245 0 100 0
0.174659 0.102011 -0.0245 0 100 0
0.127191 0.0796093 -0.0245 0 100 0
-0.0665448 0.101027 -0.0245 0 100 0
0.0277044 0.0801635 -0.0245 0 100 0
-0.0533421 0.118553 -0.0245 0 100 0
0.150983 0.104039 -0.0245 0 100 0
0.0736245 0.0755984 -0.0245 0 100 0
0.0949806 0.0760564 -0.0245 0 100 0
0.00132004 0.112821 -0.0245 0 100 0
-0.121828 0.0934936 -0.0245 0 100 0
-0.0667169 0.117772 -0.0245 0 100 0
-0.0237402 0.106404 -0.0245 0 100 0
0.0802609 0.0892567 -0.0245 0 100 0
-0.128542 0.0821065 -0.0245 0 100 0
-0.0750463 0.111092 -0.0245 0 100 0
0.177249 0.0967084 -0.0245 0 100 0
0.0958034 0.124083 -0.0245 0 100 0
-0.0203387 0.101673 -0.0245 0 100 0
0.0644601 0.0857226 -0.0245 0 100 0
0.125467 0.0812536 -0.0245 0 100 0
0.0105969 0.0953825 -0.0245 0 100 0
0.0795283 0.0803415 -0.0245 0 100 0
-0.0801551 0.107166 -0.0245 0 100 0
0.017675 0.119283 -0.0245 0 100 0
-0.0452498 0.0934872 -0.0245 0 100 0
-0.125319 0.111313 -0.0245 0 100 0
-0.071493 0.09871 -0.0245 0 100 0
0.0820803 0.110648 -0.0245 0 100 0
-0.00701899 0.0838075 -0.0245 0 100 0
0.00316033 0.0888746 -0.0245 0 100 0
0.0744947 0.120159 -0.0245 0 100 0
0.0718185 0.0931964 -0.0245 0 100 0
0.166414 0.0922522 -0.0245 0 100 0
-0.128883 0.0912688 -0.0245 0 100 0
0.0119245 0.108475 -0.0245 0 100 0
-0.101037 0.117587 -0.0245 0 100 0
0.0218238 0.0867295 -0.0245 0 100 0
0.155474 0.0761174 -0.0245 0 100 0
0.0420317 0.119585 -0.0245 0 100 0
0.163182 0.122285 -0.0245 0 100 0
0.0595651 0.101087 -0.0245 0 100 0
0.0797158 0.0895428 -0.0245 0 100 0
-0.133004 0.110411 0.0245 0 100 0
-0.00816332 0.0856439 0.0245 0 100 0
0.0834525 0.0889355 0.0245 0 100 0
0.110704 0.0936769 0.0245 0 100 0
0.0232117 0.0951857 0.0245 0 100 0
-0.116344 0.105487 0.0245 0 100 0
-0.0952108 0.0797596 0.0245 0 100 0
0.0400074 0.108348 0.0245 0 100 0
0.0955649 0.106463 0.0245 0 100 0
-0.110863 0.103678 0.0245 0 100 0
-0.105912 0.0889735 0.0245 0 100 0
-0.105063 0.0817323 0.0245 0 100 0
0.0174074 0.0923898 0.0245 0 100 0
-0.0168897 0.105832 0.0245 0 100 0
0.127396 0.108517 0.0245 0 100 0
-0.102659 0.0993689 0.0245 0 100 0
-0.0311191 0.118871 0.0245 0 100 0
-0.0283776 0.115228 0.0245 0 100 0
0.139999 0.0837433 0.0245 0 100 0
-0.147531 0.0846094 0.0245 0 100 0
-0.0890724 0.0995084 0.0245 0 100 0
-0.0183604 0.0761091 0.0245 0 100 0
-0.108629 0.111266 0.0245 0 100 0
0.0931441 0.121041 0.0245 0 100 0
-0.0605976 0.118654 0.0245 0 100 0
0.092515 0.0894343 0.0245 0 100 0
0.161149 0.120035 0.0245 0 100 0
0.182152 0.0966913 0.0245 0 100 0
0.0404755 0.0895718 0.0245 0 100 0
0.129632 0.117581 0.0245 0 100 0
-0.0905862 0.105786 0.0245 0 100 0
0.00792267 0.120142 0.0245 0 100 0
0.033049 0.111255 0.0245 0 100 0
0.0717124 0.112771 0.0245 0 100 0
0.18742 0.0906304 0.0245 0 100 0
0.159262 0.11061 0.0245 0 100 0
0.176817 0.0846453 0.0245 0 100 0
-0.0266767 0.106175 0.0245 0 100 0
0.113761 0.0840709 0.0245 0 100 0
0.179235 0.0878999 0.0245 0 100 0
-0.118633 0.102554 0.0245 0 100 0
0.150721 0.101593 0.0245 0 100 0
0.0872611 0.0931314 0.0245 0 100 0
0.011292 0.121041 0.0245 0 100 0
0.133428 0.111893 0.0245 0 100 0
-0.0484911 0.0904063 0.0245 0 100 0
0.137159 0.11273 0.0245 0 100 0
0.117526 0.0898194 0.0245 0 100 0
0.141681 0.115603 0.0245 0 100 0
-0.0600427 0.115759 0.0245 0 100 0
-0.0702486 0.0958271 0.0245 0 100 0
0.130107 0.113415 0.0245 0 100 0
-0.125495 0.0932843 0.0245 0 100 0
0.131173 0.0925003 0.0245 0 100 0
-0.0848687 0.0947566 0.0245 0 100 0
0.00531955 0.109708 0.0245 0 100 0
0.19773 0.114902 0.0245 0 100 0
0.16738 0.106903 0.0245 0 100 0
-0.0367204 0.0820473 0.0245 0 100 0
0.0729957 0.0897401 0.0245 0 100 0
0.0703629 0.106258 0.0245 0 100 0
0.115916 0.113609 0.0245 0 100 0
-0.0623362 0.120333 0.0245 0 100 0
0.121615 0.0798125 0.0245 0 100 0
0.0375668 0.113843 0.0245 0 100 0
0.198533 0.102523 0.0245 0 100 0
-0.137306 0.114268 0.0245 0 100 0
0.0547812 0.108427 0.0245 0 100 0
-0.14725 0.10103 0.0245 0 100 0
0.0826939 0.119618 0.0245 0 100 0
0.0977325 0.0872819 0.0245 0 100 0
-0.00358079 0.0981592 0.0245 0 100 0
-0.0955143 0.102055 0.0245 0 100 0
-0.0647051 0.11255 0.0245 0 100 0
0.00267368 0.112684 0.0245 0 100 0
-0.131971 0.11584 0.0245 0 100 0
0.00411643 0.077391 0.0245 0 100 0
-0.0115524 0.0920332 0.0245 0 100 0
0.131636 0.119975 0.0245 0 100 0
-0.00937697 0.0985276 0.0245 0 100 0
-0.138962 0.124345 0.0245 0 100 0
0.180926 0.112464 0.0245 0 100 0
0.0944482 0.0909027 0.0245 0 100 0
0.0472567 0.111903 0.0245 0 100 0
0.0694377 0.111932 0.0245 0 100 0
-0.101808 0.0864729 0.0245 0 100 0
0.140419 0.108034 0.0245 0 100 0
0.179 0.117522 0.0245 0 100 0
0.130774 0.0987225 0.0245 0 100 0
-0.052778 0.0932698 0.0245 0 100 0
0.0684218 0.118968 0.0245 0 100 0
0.194515 0.103061 0.0245 0 100 0
-0.0520304 0.0840425 0.0245 0 100 0
0.0733713 0.123794 0.0245 0 100 0
0.196641 0.113544 0.0245 0 100 0
0.00806626 0.108282 0.0245 0 100 0
0.147831 0.114581 0.0245 0 100 0
0.138714 0.075859 0.0245 0 100 0
0.179587 0.0868652 0.0245 0 100 0
-0.0409866 0.101317 0.0245 0 100 0
-0.0200497 0.091473 0.0245 0 100 0
-0.0547524 0.102867 0.0245 0 100 0
0.144058 0.114716 0.0245 0 100 0
-0.131842 0.116244 0.0245 0 100 0
-0.0995011 0.120701 0.0245 0 100 0
-0.111404 0.0996341 0.0245 0 100 0
0.0650753 0.11452 0.0245 0 100 0
-0.120233 0.102009 0.0245 0 100 0
0.0738496 0.1074 0.0245 0 100 0
-0.121152 0.119191 0.0245 0 100 0
0.103299 0.100623 0.0245 0 100 0
0.0771421 0.11997 0.0245 0 100 0
0.170756 0.0927447 0.0245 0 100 0
-0.00783588 0.0845637 0.0245 0 100 0
-0.120881 0.0866112 0.0245 0 100 0
-0.0427548 0.120848 0.0245 0 100 0
0.140013 0.0903043 0.0245 0 100 0
0.168707 0.117352 0.0245 0 100 0
0.152608 0.124102 0.0245 0 100 0
0.0179034 0.0781307 0.0245 0 100 0
-0.103569 0.105232 0.0245 0 100 0
-0.109282 0.110968 0.0245 0 100 0
-0.069626 0.101126 0.0245 0 100 0
0.122357 0.0924383 0.0245 0 100 0
-0.0155689 0.0853177 0.0245 0 100 0
-0.0985895 0.0831201 0.0245 0 100 0
-0.0916981 0.112075 0.0245 0 100 0
-0.0698444 0.0830866 0.0245 0 100 0
-0.147345 0.0913323 0.0245 0 100 0
-0.140506 0.107154 0.0245 0 100 0
0.0356489 0.0766947 0.0245 0 100 0
-0.0599387 0.120018 0.0245 0 100 0
0.140651 0.115009 0.0245 0 100 0
0.136109 0.121857 0.0245 0 100 0
-0.00887103 0.111953 0.0245 0 100 0
-0.127448 0.0999015 0.0245 0 100 0
0.0713571 0.0975159 0.0245 0 100 0
0.0934938 0.0818454 0.0245 0 100 0
0.101941 0.0852344 0.0245 0 100 0
0.1101 0.102888 0.0245 0 100 0
0.169904 0.101698 0.0245 0 100 0
0.0110698 0.100581 0.0245 0 100 0
0.0111272 0.0950681 0.0245 0 100 0
0.0777492 0.0819477 0.0245 0 100 0
-0.126862 0.113379 0.0245 0 100 0
0.15541 0.111013 0.0245 0 100 0
0.0536234 0.0782445 0.0245 0 100 0
-0.0944885 0.111595 0.0245 0 100 0
0.027108 0.0776723 0.0245 0 100 0
0.155891 0.0993204 0.0245 0 100 0
0.0314621 0.0964598 0.0245 0 100 0
0.0345381 0.120643 0.0245 0 100 0
0.177698 0.0958756 0.0245 0 100 0
0.113599 0.115932 0.0245 0 100 0
0.167116 0.0940039 0.0245 0 100 0
-0.0134398 0.105794 0.0245 0 100 0
0.0456976 0.107057 0.0245 0 100 0
-0.0872194 0.0970878 0.0245 0 100 0
-0.109028 0.100837 0.0245 0 100 0
0.0562365 0.122436 0.0245 0 100 0
0.0955653 0.11261 0.0245 0 100 0
0.0247639 0.114126 0.0245 0 100 0
0.112431 0.105581 0.0245 0 100 0
-0.0950887 0.0759678 0.0245 0 100 0
0.0404977 0.0812365 0.0245 0 100 0
0.188399 0.121777 0.0245 0 100 0
0.0221506 0.0782834 0.0245 0 100 0
0.0650397 0.119061 0.0245 0 100 0
0.0852865 0.0911403 0.0245 0 100 0
0.065943 0.0872741 0.0245 0 100 0
-0.0353079 0.0808664 0.0245 0 100 0
-0.1495 0.0981974 -0.0205915 0 100 0
-0.1495 0.110511 -0.00249878 0 100 0
-0.1495 0.101567 -0.0198597 0 100 0
-0.1495 0.103994 0.0162728 0 100 0
-0.1495 0.0993859 -0.00128815 0 100 0
-0.1495 0.0810717 0.00205016 0 100 0
-0.1495 0.0790449 -0.00880593 0 100 0
-0.1495 0.094993 0.0145736 0 100 0
-0.1495 0.0910729 0.00419253 0 100 0
-0.1495 0.0844304 0.0155471 0 100 0
-0.1495 0.104683 0.0031055 0 100 0
-0.1495 0.0760716 -0.0152877 0 100 0
-0.1495 0.0834152 0.0220197 0 100 0
-0.1495 0.110509 -0.0221891 0 100 0
-0.1495 0.0763104 0.00407568 0 100 0
-0.1495 0.114093 0.0197687 0 100 0
-0.1495 0.11829 -0.0121488 0 100 0
-0.1495 0.0880541 0.0205768 0 100 0
-0.1495 0.113544 -0.000331587 0 100 0
-0.1495 0.124288 0.0176517 0 100 0
-0.1495 0.104655 0.0106728 0 100 0
-0.1495 0.0966761 -0.00481475 0 100 0
-0.1495 0.101797 -0.0109213 0 100 0
-0.1495 0.0996449 -0.00446728 0 100 0
0.1995 0.1011 0.015273 0 100 0
0.1995 0.113011 0.00331761 0 100 0
0.1995 0.109805 0.0212773 0 100 0
0.1995 0.117487 -0.0189688 0 100 0
0.1995 0.119839 0.0194104 0 100 0
0.1995 0.0914129 -0.00546993 0 100 0
0.1995 0.0879497 -0.0152187 0 100 0
0.1995 0.077809 -0.00275456 0 100 0
0.1995 0.0802801 -0.00899556 0 100 0
0.1995 0.0826962 -0.0185318 0 100 0
0.1995 0.0976402 -0.0135696 0 100 0
0.1995 0.117442 0.0132052 0 100 0
0.1995 0.122814 0.0207397 0 100 0
0.1995 0.0979994 -0.00298203 0 100 0
0.1995 0.0849599 -0.0056897 0 100 0
0.1995 0.10249 -0.0234421 0 100 0
0.1995 0.0963458 0.00243819 0 100 0
0.1995 0.111531 0.0181055 0 100 0
0.1995 0.117996 0.0176516 0 100 0
0.1995 0.0860156 0.0138616 0 100 0
0.1995 0.0810528 -0.0070096 0 100 0
0.1995 0.11693 0.0188586 0 100 0
0.1995 0.120722 -0.00115098 0 100 0
0.1995 0.106153 0.00332044 0 100 0
-0.138232 0.1245 -0.018267 0 100 0
-0.103911 0.1245 -0.0185859 0 100 0
-0.0399703 0.1245 0.00660997 0 100 0
-0.10529 0.1245 -0.0234933 0 100 0
-0.060836 0.1245 0.0100997 0 100 0
0.038479 0.1245 -0.00156385 0 100 0
0.101883 0.1245 0.0121051 0 100 0
0.0545453 0.1245 -0.019035 0 100 0
-0.0676957 0.1245 -0.0179667 0 100 0
-0.132381 0.1245 0.0191078 0 100 0
0.0684227 0.1245 0.0221584 0 100 0
0.0520971 0.1245 0.000764806 0 100 0
0.188661 0.1245 -0.0223501 0 100 0
-0.00373339 0.1245 -0.0168598 0 100 0
0.171459 0.1245 -0.0181548 0 100 0
-0.105268 0.1245 -0.0105707 0 100 0
-0.109517 0.1245 -0.0135649 0 100 0
0.149033 0.1245 0.018228 0 100 0
0.0389536 0.1245 0.0225545 0 100 0
0.0825685 0.1245 -0.0229764 0 100 0
0.0865271 0.1245 -0.0142306 0 100 0
-0.113834 0.1245 -0.00262358 0 100 0
-0.0270496 0.1245 0.0217193 0 100 0
0.0804908 0.1245 -0.015642 0 100 0
0.111694 0.1245 -0.0125338 0 100 0
0.118102 0.1245 -0.0204113 0 100 0
-0.0387519 0.1245 -0.0216631 0 100 0
0.0883241 0.1245 -0.00593001 0 100 0
0.0395856 0.1245 0.00173247 0 100 0
0.00287473 0.1245 0.0065739 0 100 0
0.0982731 0.1245 -0.0164331 0 100 0
0.0740177 0.1245 -0.0224467 0 100 0
-0.071542 0.1245 -0.0206495 0 100 0
-0.0885405 0.1245 -0.0205798 0 100 0
-0.118666 0.1245 -0.0224922 0 100 0
0.00666377 0.1245 0.0168002 0 100 0
-0.110468 0.1245 0.00234074 0 100 0
0.0631973 0.1245 0.0205123 0 100 0
-0.136432 0.1245 0.000518983 0 100 0
0.156827 0.1245 -0.0168839 0 100 0
-0.00878845 0.1245 -0.0118437 0 100 0
0.151448 0.1245 -0.0172223 0 100 0
-0.0530714 0.1245 0.000122597 0 100 0
0.111818 0.1245 0.00194552 0 100 0
0.00420915 0.1245 0.0229573 0 100 0
-0.0407796 0.1245 0.0161625 0 100 0
0.169376 0.1245 0.0137592 0 100 0
-0.098441 0.1245 -0.000448018 0 100 0
-0.0632414 0.1245 0.006736 0 100 0
-0.0633735 0.1245 -0.00717533 0 100 0
0.0675255 0.1245 -0.015838 0 100 0
-0.101837 0.1245 -0.013541 0 100 0
0.0639604 0.1245 0.000423465 0 100 0
0.0887509 0.1245 -0.0216486 0 100 0
-0.122405 0.1245 0.0230825 0 100 0
-0.1342 0.1245 -0.023384 0 100 0
-0.0206698 0.1245 0.0214117 0 100 0
0.146411 0.1245 0.0241543 0 100 0
-0.124295 0.1245 0.00961434 0 100 0
-0.0189893 0.1245 0.0179408 0 100 0
-0.00183671 0.1245 -0.016439 0 100 0
0.0566788 0.1245 -0.0144999 0 100 0
0.041355 0.1245 0.00958394 0 100 0
-0.000282082 0.1245 -0.0201674 0 100 0
-0.0105438 0.1245 0.000678948 0 100 0
-0.045093 0.1245 -0.0225743 0 100 0
-0.0232485 0.1245 0.0239953 0 100 0
0.0902038 0.1245 0.0046394 0 100 0
-0.072456 0.1245 0.0160324 0 100 0
-0.13861 0.1245 0.0113392 0 100 0
0.169382 0.1245 0.0172249 0 100 0
0.132557 0.1245 0.0138969 0 100 0
-0.00593171 0.1245 0.00566454 0 100 0
0.187377 0.1245 -0.00736374 0 100 0
0.168013 0.1245 0.00339181 0 100 0
-0.118212 0.1245 0.0199904 0 100 0
0.142786 0.1245 -0.00464092 0 100 0
0.184724 0.1245 6.47769e-05 0 100 0
-0.0870519 0.1245 -0.0100547 0 100 0
0.108056 0.1245 -0.00959379 0 100 0
0.111382 0.1245 -0.0100365 0 100 0
0.00859567 0.1245 -0.00817606 0 100 0
-0.056696 0.1245 0.0203136 0 100 0
-0.10083 0.1245 -0.0232622 0 100 0
-0.0817664 0.1245 0.000184553 0 100 0
0.0262965 0.1245 -0.0205277 0 100 0
-0.0582531 0.1245 -0.00943226 0 100 0
0.00855152 0.1245 -0.0181085 0 100 0
-0.0232228 0.1245 -0.0183179 0 100 0
-0.0525805 0.1245 -0.00684544 0 100 0
0.19879 0.1245 -0.00561247 0 100 0
0.090771 0.1245 -0.0101578 0 100 0
-0.0447115 0.1245 0.00773289 0 100 0
-0.103879 0.1245 0.0199299 0 100 0
-0.075157 0.1245 0.0139699 0 100 0
-0.000377997 0.1245 0.00924299 0 100 0
-0.00621001 0.1245 -0.0134232 0 100 0
0.0216964 0.1245 0.00234508 0 100 0
0.0812267 0.1245 -0.0124203 0 100 0
0.0684408 0.1245 0.00537208 0 100 0
-0.147543 0.1245 0.00185407 0 100 0
0.142687 0.1245 0.0217395 0 100 0
0.0051865 0.1245 -0.0125342 0 100 0
-0.0526184 0.1245 0.0048341 0 100 0
0.0595103 0.1245 0.00982754 0 100 0
-0.0511404 0.1245 0.00805945 0 100 0
-0.0716507 0.1245 -0.0121986 0 100 0
-0.0284275 0.1245 -0.0197471 0 100 0
-0.0999086 0.1245 0.0231434 0 100 0
0.144579 0.1245 0.00134701 0 100 0
-0.00883719 0.1245 -0.0166014 0 100 0
0.143483 0.1245 -0.0146363 0 100 0
0.111974 0.1245 0.0170978 0 100 0
-0.00619257 0.1245 -0.00633999 0 100 0
0.0197298 0.1245 -0.0156852 0 100 0
-0.070891 0.1245 0.00511978 0 100 0
0.0480693 0.1245 -0.0200866 0 100 0
-0.0132811 0.1245 0.0113468 0 100 0
0.0902264 0.1245 0.0217866 0 100 0
0.0847996 0.1245 -0.019718 0 100 0
-0.0825757 0.1245 0.00298916 0 100 0
-0.0236948 0.1245 -0.00868249 0 100 0
-0.14763 0.1245 -0.0214578 0 100 0
0.174614 0.1245 0.0191722 0 100 0
-0.0500346 0.1245 0.00696731 0 100 0
-0.133827 0.1245 -0.00344782 0 100 0
-0.0281424 0.1245 -0.0149508 0 100 0
0.0551652 0.1245 -0.0116245 0 100 0
0.184508 0.1245 -0.00695465 0 100 0
0.12868 0.1245 -0.017971 0 100 0
-0.105239 0.1245 0.0140925 0 100 0
0.0183307 0.1245 0.0230774 0 100 0
0.133622 0.1245 0.0122007 0 100 0
0.196401 0.1245 0.00131484 0 100 0
0.169672 0.1245 -0.0210779 0 100 0
0.0173326 0.1245 -0.00736036 0 100 0
-0.0920882 0.1245 -0.00722492 0 100 0
-0.00285228 0.1245 -0.0164062 0 100 0
-0.00544312 0.1245 0.000224589 0 100 0
-0.0446802 0.1245 0.0211194 0 100 0
-0.000395058 0.1245 0.0163354 0 100 0
-0.0110715 0.1245 0.00881786 0 100 0
-0.116788 0.1245 -0.00874716 0 100 0
-0.0454182 0.1245 -0.0132115 0 100 0
-0.0153769 0.1245 0.01861 0 100 0
-0.100105 0.1245 -0.0150347 0 100 0
0.127304 0.1245 -0.02245 0 100 0
0.192291 0.1245 0.00820826 0 100 0
0.0368253 0.1245 0.00529352 0 100 0
-0.0227189 0.1245 0.0192019 0 100 0
-0.0262176 0.1245 0.0191374 0 100 0
-0.0868334 0.1245 0.000220148 0 100 0
0.109384 0.1245 -0.0142149 0 100 0
0.194602 0.1245 -0.0039854 0 100 0
-0.0624315 0.1245 -0.0205774 0 100 0
0.0895342 0.1245 0.0159042 0 100 0
0.121869 0.1245 -0.0201039 0 100 0
0.173809 0.1245 -0.0122756 0 100 0
-0.0907987 0.1245 -0.023217 0 100 0
0.117879 0.1245 -0.013464 0 100 0
-0.0318707 0.1245 0.000933524 0 100 0
0.186225 0.1245 -0.00856288 0 100 0
0.0127053 0.1245 0.00651752 0 100 0
0.154585 0.1245 -0.0102732 0 100 0
-0.0966823 0.1245 0.0181109 0 100 0
0.176278 0.1245 -0.0190399 0 100 0
-0.0607218 0.1245 -0.0131522 0 100 0
-0.0208906 0.1245 0.0129791 0 100 0
0.163882 0.1245 0.0107548 0 100 0
0.0819778 0.1245 -0.0184687 0 100 0
0.0136857 0.1245 0.00748491 0 100 0
0.120434 0.0755 0.0115809 0 100 0
-0.102261 0.0755 -0.0162528 0 100 0
0.149889 0.0755 -0.010657 0 100 0
0.0407589 0.0755 0.0210361 0 100 0
0.0745744 0.0755 0.0107874 0 100 0
-0.104066 0.0755 -0.0143065 0 100 0
-0.132353 0.0755 0.0211636 0 100 0
0.0165484 0.0755 0.000541445 0 100 0
0.194775 0.0755 -0.010598 0 100 0
-0.0273081 0.0755 -0.00798317 0 100 0
0.12735 0.0755 0.0233603 0 100 0
-0.0529633 0.0755 -0.0182791 0 100 0
0.167419 0.0755 0.0117812 0 100 0
-0.107462 0.0755 0.00292225 0 100 0
-0.0916008 0.0755 0.0216842 0 100 0
-0.0633386 0.0755 0.00431535 0 100 0
-0.0835384 0.0755 0.0226349 0 100 0
-0.0360706 0.0755 -0.0161344 0 100 0
-0.129845 0.0755 -0.0122857 0 100 0
0.0186392 0.0755 0.00428322 0 100 0
0.0994201 0.0755 -0.00570525 0 100 0
-0.0281631 0.0755 -0.0171282 0 100 0
0.0206242 0.0755 0.0229382 0 100 0
-0.000214976 0.0755 -0.0158334 0 100 0
-0.0462121 0.0755 -0.00585939 0 100 0
-0.146491 0.0755 0.0206083 0 100 0
-0.016863 0.0755 0.0122295 0 100 0
-0.147644 0.0755 0.0185391 0 100 0
-0.0499309 0.0755 0.00487181 0 100 0
0.176522 0.0755 0.015671 0 100 0
0.119116 0.0755 -0.0114167 0 100 0
-0.071743 0.0755 -0.0155841 0 100 0
0.11305 0.0755 -0.0100477 0 100 0
0.0782528 0.0755 -0.0238707 0 100 0
-0.0179998 0.0755 0.0214825 0 100 0
0.0999369 0.0755 0.018294 0 100 0
-0.058895 0.0755 0.0210277 0 100 0
0.10758 0.0755 0.019166 0 100 0
0.12331 0.0755 0.0205397 0 100 0
0.0560172 0.0755 0.0229026 0 100 0
0.168668 0.0755 0.0207733 0 100 0
0.0466455 0.0755 -0.0237351 0 100 0
0.179025 0.0755 0.0210137 0 100 0
-0.0607839 0.0755 0.0211516 0 100 0
0.106068 0.0755 0.0130352 0 100 0
0.0455159 0.0755 0.00959883 0 100 0
-0.0338371 0.0755 -0.000265301 0 100 0
0.100581 0.0755 -0.0177182 0 100 0
-0.012893 0.0755 -0.0221406 0 100 0
0.143506 0.0755 0.0191603 0 100 0
0.170537 0.0755 -0.000912308 0 100 0
0.0318217 0.0755 0.0225316 0 100 0
-0.133469 0.0755 -0.00786665 0 100 0
-0.120234 0.0755 -0.0115176 0 100 0
-0.145426 0.0755 0.0197601 0 100 0
0.10153 0.0755 0.0235607 0 100 0
0.0294082 0.0755 -0.0226082 0 100 0
-0.0116237 0.0755 0.0056188 0 100 0
-0.114857 0.0755 0.0146729 0 100 0
0.0181546 0.0755 0.0134488 0 100 0
0.153308 0.0755 0.0207021 0 100 0
-0.0202823 0.0755 -0.00800903 0 100 0
0.111844 0.0755 -0.0229494 0 100 0
-0.0515203 0.0755 0.00161164 0 100 0
0.123899 0.0755 0.0204712 0 100 0
0.0994541 0.0755 -0.00301799 0 100 0
0.112079 0.0755 -0.0141172 0 100 0
0.10615 0.0755 0.0126581 0 100 0
-0.0995945 0.0755 -0.00660718 0 100 0
-0.104374 0.0755 0.0158155 0 100 0
0.19164 0.0755 -0.00756657 0 100 0
0.190895 0.0755 0.00927685 0 100 0
0.111525 0.0755 0.0159069 0 100 0
-0.0376581 0.0755 -0.00693641 0 100 0
0.146469 0.0755 -0.0170252 0 100 0
0.158249 0.0755 -0.0142885 0 100 0
-0.0295078 0.0755 -0.00658638 0 100 0
0.198127 0.0755 -0.0215504 0 100 0
-0.0918208 0.0755 0.0242034 0 100 0
-0.148185 0.0755 -0.00819981 0 100 0
-0.0921809 0.0755 0.0145338 0 100 0
0.0249206 0.0755 -0.0133829 0 100 0
0.140035 0.0755 0.00538125 0 100 0
0.00942455 0.0755 -0.0197589 0 100 0
0.00597538 0.0755 0.0180341 0 100 0
-0.147052 0.0755 0.0227131 0 100 0
-0.0331882 0.0755 0.0181799 0 100 0
-0.0325764 0.0755 0.00365211 0 100 0
-0.050643 0.0755 0.0221907 0 100 0
-0.144563 0.0755 0.00713613 0 100 0
-0.0532085 0.0755 -0.00503928 0 100 0
0.0789103 0.0755 -0.00259657 0 100 0
0.131551 0.0755 -0.012541 0 100 0
-0.146412 0.0755 -0.00885772 0 100 0
0.0794161 0.0755 0.0238473 0 100 0
0.0979904 0.0755 -0.0169368 0 100 0
-0.14917 0.0755 0.00752188 0 100 0
0.11869 0.0755 -0.00192457 0 100 0
0.189531 0.0755 0.00899153 0 100 0
-0.0332293 0.0755 0.00843543 0 100 0
0.0233878 0.0755 0.0128918 0 100 0
0.184263 0.0755 0.0235537 0 100 0
0.108199 0.0755 -0.0165246 0 100 0
0.0956753 0.0755 -0.0183572 0 100 0
0.0736006 0.0755 -0.020467 0 100 0
0.00134825 0.0755 0.012102 0 100 0
0.0450649 0.0755 0.0162891 0 100 0
-0.0593438 0.0755 -0.00208164 0 100 0
-0.064272 0.0755 0.0210435 0 100 0
0.0186682 0.0755 -0.0231848 0 100 0
0.0688319 0.0755 -0.00187481 0 100 0
0.0912716 0.0755 -0.00332907 0 100 0
0.121055 0.0755 0.0178262 0 100 0
0.15935 0.0755 0.0150258 0 100 0
0.053394 0.0755 0.00308142 0 100 0
-0.0816609 0.0755 -0.00127236 0 100 0
-0.141072 0.0755 -0.0214162 0 100 0
-0.0125565 0.0755 -0.00161383 0 100 0
-0.107651 0.0755 0.000636793 0 100 0
-0.104187 0.0755 -0.0213742 0 100 0
-0.0838223 0.0755 -0.0162652 0 100 0
0.195438 0.0755 -0.00158518 0 100 0
0.00335489 0.0755 0.0237827 0 100 0
0.0221881 0.0755 -0.00615861 0 100 0
0.179293 0.0755 -0.0182522 0 100 0
-0.0379585 0.0755 -0.0112914 0 100 0
0.122146 0.0755 -0.00283728 0 100 0
-0.00446981 0.0755 0.0121449 0 100 0
-0.0353762 0.0755 0.00672783 0 100 0
0.10916 0.0755 -0.00567386 0 100 0
0.0448339 0.0755 -0.0189721 0 100 0
-0.0347629 0.0755 0.00890767 0 100 0
0.193387 0.0755 -0.00456312 0 100 0
0.0321513 0.0755 0.0185091 0 100 0
0.185777 0.0755 -0.0187869 0 100 0
-0.125619 0.0755 -0.00285661 0 100 0
-0.116926 0.0755 -0.00116493 0 100 0
-0.0751329 0.0755 0.0233551 0 100 0
0.0829387 0.0755 -0.00255071 0 100 0
-0.0155159 0.0755 0.0152813 0 100 0
0.0932175 0.0755 0.0189642 0 100 0
0.0602926 0.0755 0.000922416 0 100 0
-0.0831363 0.0755 -0.00487035 0 100 0
0.179175 0.0755 -0.00317992 0 100 0
0.165613 0.0755 0.0036999 0 100 0
0.13744 0.0755 0.0096428 0 100 0
0.193144 0.0755 -0.00424513 0 100 0
-0.029656 0.0755 0.00974382 0 100 0
-0.0271704 0.0755 -0.0200506 0 100 0
0.140326 0.0755 -0.0174738 0 100 0
-0.0811718 0.0755 0.00929623 0 100 0
0.16852 0.0755 -0.00361817 0 100 0
0.12818 0.0755 -0.0220325 0 100 0
-0.0389237 0.0755 -0.0218926 0 100 0
0.152796 0.0755 -0.0146359 0 100 0
0.0677632 0.0755 0.0182294 0 100 0
-0.128265 0.0755 0.0179501 0 100 0
-0.119834 0.0755 -0.0232313 0 100 0
-0.00776342 0.0755 0.0223749 0 100 0
-0.0310288 0.0755 -0.00530518 0 100 0
-0.103059 0.0755 0.0144699 0 100 0
-0.0571994 0.0755 -0.0165434 0 100 0
0.10285 0.0755 0.0157301 0 100 0
0.101367 0.0755 0.0175905 0 100 0
0.15494 0.0755 -0.0197794 0 100 0
0.0130515 0.0755 0.00428307 0 100 0
0.060749 0.0755 0.000266554 0 100 0
0.0492104 0.0755 -0.0165472 0 100 0
-0.0366011 0.0755 0.0240468 0 100 0
0.152517 0.0755 -0.0141593 0 100 0
-0.00281732 0.0755 -0.00431189 0 100 0
