ply
format ascii 1.0
comment Created by Open3D
element vertex 1268
property double x
property double y
property double z
property uchar red
property uchar green
property uchar blue
end_header
-0.00126476 0.0175393 0.0305 0 100 0
-0.0450193 -0.101497 0.0305 0 100 0
-0.0346245 -0.062714 0.0305 0 100 0
-0.00516631 0.0220999 0.0305 0 100 0
-0.0194117 -0.0477544 0.0305 0 100 0
-0.0391778 -0.0453371 0.0305 0 100 0
-0.0244116 -0.110954 0.0305 0 100 0
-0.0381407 -0.0928978 0.0305 0 100 0
-0.0142908 -0.0903579 0.0305 0 100 0
-0.0462722 0.060022 0.0305 0 100 0
-0.00925328 0.0315308 0.0305 0 100 0
-0.0408968 -0.116141 0.0305 0 100 0
-0.0185759 -0.0993332 0.0305 0 100 0
-0.00085859 -0.037366 0.0305 0 100 0
-0.0249285 0.103645 0.0305 0 100 0
-0.0352296 0.01956 0.0305 0 100 0
-0.0130319 0.0294308 0.0305 0 100 0
-0.0211016 0.0998001 0.0305 0 100 0
-0.0205587 -0.049179 0.0305 0 100 0
-0.015104 0.0270371 0.0305 0 100 0
-0.00520511 -0.0444794 0.0305 0 100 0
-0.0187319 -0.0423249 0.0305 0 100 0
-0.00632807 -0.0256899 0.0305 0 100 0
-0.0246446 0.00507695 0.0305 0 100 0
-0.0305127 -0.035 0.0305 0 100 0
-0.0151898 0.102752 0.0305 0 100 0
-0.0395472 0.0482988 0.0305 0 100 0
-0.0429 -0.0156111 0.0305 0 100 0
-0.0288908 0.0646755 0.0305 0 100 0
-0.0096906 0.103375 0.0305 0 100 0
-0.0479207 -0.0241569 0.0305 0 100 0
-0.00568235 -0.0416143 0.0305 0 100 0
-0.0128908 0.0917006 0.0305 0 100 0
-0.025809 -0.00247336 0.0305 0 100 0
-0.00299363 0.0457753 0.0305 0 100 0
-0.00587791 0.0982564 0.0305 0 100 0
-0.01857 0.116709 0.0305 0 100 0
-0.041769 -0.120943 0.0305 0 100 0
-0.00619235 0.0452767 0.0305 0 100 0
-0.039721 -0.0973379 0.0305 0 100 0
-0.0446863 0.0309654 0.0305 0 100 0
-0.0426632 -0.0427085 0.0305 0 100 0
-0.0261702 0.0633938 0.0305 0 100 0
-0.0432805 -0.0559482 0.0305 0 100 0
-0.0192043 -0.05971 0.0305 0 100 0
-0.011933 0.0433095 0.0305 0 100 0
-0.0398924 0.0156783 0.0305 0 100 0
-0.0436729 -0.110332 0.0305 0 100 0
-0.024511 -0.0136403 0.0305 0 100 0
-0.0153586 0.111156 0.0305 0 100 0
-0.00361345 0.062087 0.0305 0 100 0
-0.0481398 -0.0990097 0.0305 0 100 0
-0.00932825 -0.0618615 0.0305 0 100 0
-0.0143132 -0.0140117 0.0305 0 100 0
-0.0360895 0.103552 0.0305 0 100 0
-0.0490747 -0.093405 0.0305 0 100 0
-0.0299184 0.0683436 0.0305 0 100 0
-0.0232989 -0.0478745 0.0305 0 100 0
-0.0414755 0.0671613 0.0305 0 100 0
-0.0245834 0.111393 0.0305 0 100 0
-0.0345698 0.108075 0.0305 0 100 0
-0.0203768 0.0986619 0.0305 0 100 0
-0.0285892 -0.0176716 0.0305 0 100 0
-0.0274528 0.025915 0.0305 0 100 0
-0.0170909 -0.0229348 0.0305 0 100 0
-0.00761975 0.0829964 0.0305 0 100 0
-0.0451087 -0.0374474 0.0305 0 100 0
-0.0402431 0.0684859 0.0305 0 100 0
-0.0407291 0.0264671 0.0305 0 100 0
-0.0403805 0.0247314 0.0305 0 100 0
-0.0466297 0.0539962 0.0305 0 100 0
-0.0103203 0.0452671 0.0305 0 100 0
-0.0330698 0.0995013 0.0305 0 100 0
-0.00732024 -0.052871 0.0305 0 100 0
-0.0265072 0.0571468 0.0305 0 100 0
-0.0036086 0.0838381 0.0305 0 100 0
-0.0275633 0.0274456 0.0305 0 100 0
-0.0193739 -0.120412 0.0305 0 100 0
-0.0444057 -0.109565 0.0305 0 100 0
-0.0384522 0.11968 0.0305 0 100 0
-0.0101039 0.110965 0.0305 0 100 0
-0.0400322 -0.0728166 0.0305 0 100 0
-0.00662229 -0.0699133 0.0305 0 100 0
-0.0060849 0.0770056 0.0305 0 100 0
-0.0378919 0.0538977 0.0305 0 100 0
-0.0182631 0.0706229 0.0305 0 100 0
-0.006827 -0.0413201 0.0305 0 100 0
-0.0283738 -0.00189312 0.0305 0 100 0
-0.014091 0.101677 0.0305 0 100 0
-0.0398191 -0.0128813 0.0305 0 100 0
-0.0370337 0.112527 0.0305 0 100 0
-0.0485577 0.100527 0.0305 0 100 0
-0.00682517 0.0557805 0.0305 0 100 0
-0.0361156 0.0341813 0.0305 0 100 0
-0.0171078 0.0511677 0.0305 0 100 0
-0.0254831 -0.00137944 0.0305 0 100 0
-0.0233274 0.0713626 0.0305 0 100 0
-0.0393317 -0.0144925 0.0305 0 100 0
-0.014884 -0.0434311 0.0305 0 100 0
-0.0311033 0.0842364 0.0305 0 100 0
-0.0444008 0.101034 0.0305 0 100 0
-0.00871971 0.122446 0.0305 0 100 0
-0.0333533 -0.0270769 0.0305 0 100 0
-0.0378177 -0.0990623 0.0305 0 100 0
-0.0356695 -0.0150164 0.0305 0 100 0
-0.0446539 -0.0877307 0.0305 0 100 0
-0.0300815 -0.0171256 0.0305 0 100 0
-0.0289812 0.0497796 0.0305 0 100 0
-0.0215088 -0.0700849 0.0305 0 100 0
-0.0189361 -0.057108 0.0305 0 100 0
-0.015455 -0.0631582 0.0305 0 100 0
-0.0467408 -0.106954 0.0305 0 100 0
-0.0150174 0.0203772 0.0305 0 100 0
-0.0386357 -0.0783438 0.0305 0 100 0
-0.044864 -0.0779142 0.0305 0 100 0
-0.0493564 0.036147 0.0305 0 100 0
-0.0207779 -0.0482104 0.0305 0 100 0
-0.0259549 0.0602501 0.0305 0 100 0
-0.0438475 -0.094662 0.0305 0 100 0
-0.0404812 -0.027279 0.0305 0 100 0
-0.042547 0.120604 0.0305 0 100 0
-0.0485384 0.0104833 0.0305 0 100 0
-0.00474751 -0.103751 0.0795 0 100 0
-0.0120134 0.0612864 0.0795 0 100 0
-0.0374208 0.07215 0.0795 0 100 0
-0.0316355 0.0757494 0.0795 0 100 0
-0.0461672 -0.0573667 0.0795 0 100 0
-0.0204124 -0.0035608 0.0795 0 100 0
-0.0488488 0.120816 0.0795 0 100 0
-0.00620707 -0.048219 0.0795 0 100 0
-0.0172513 -0.0216224 0.0795 0 100 0
-0.029504 0.041218 0.0795 0 100 0
-0.0159241 -0.0941003 0.0795 0 100 0
-0.047366 0.07613 0.0795 0 100 0
-0.0466593 -0.00313705 0.0795 0 100 0
-0.00924326 0.00310518 0.0795 0 100 0
-0.0378106 0.0997601 0.0795 0 100 0
-0.00405572 -0.0166459 0.0795 0 100 0
-0.00152294 0.0815949 0.0795 0 100 0
-0.0374222 0.0219177 0.0795 0 100 0
-0.0263363 -0.120439 0.0795 0 100 0
-0.0195724 0.10521 0.0795 0 100 0
-0.0354383 0.0893549 0.0795 0 100 0
-0.0155493 0.108024 0.0795 0 100 0
-0.0274732 0.0175006 0.0795 0 100 0
-0.00724993 0.0291073 0.0795 0 100 0
-0.0467233 -0.0898137 0.0795 0 100 0
-0.00579583 -0.0373142 0.0795 0 100 0
-0.0270264 0.0468479 0.0795 0 100 0
-0.0328245 0.0828365 0.0795 0 100 0
-0.0314828 0.0709193 0.0795 0 100 0
-0.0198188 -0.0104119 0.0795 0 100 0
-0.0303026 -0.103202 0.0795 0 100 0
-0.0288343 0.109179 0.0795 0 100 0
-0.0123679 0.0205291 0.0795 0 100 0
-0.046327 0.0999638 0.0795 0 100 0
-0.0273131 0.0383912 0.0795 0 100 0
-0.03296 -0.0482991 0.0795 0 100 0
-0.0029028 0.11279 0.0795 0 100 0
-0.025107 -0.109534 0.0795 0 100 0
-0.0288919 -0.00477929 0.0795 0 100 0
-0.00171143 -0.0650425 0.0795 0 100 0
-0.00881496 -0.0247754 0.0795 0 100 0
-0.0132911 -0.0771279 0.0795 0 100 0
-0.0331936 -0.102024 0.0795 0 100 0
-0.0371544 -0.0341521 0.0795 0 100 0
-0.0285234 0.067788 0.0795 0 100 0
-0.0329919 -0.0759288 0.0795 0 100 0
-0.0325471 -0.0556251 0.0795 0 100 0
-0.0427036 0.100408 0.0795 0 100 0
-0.0425376 0.0451519 0.0795 0 100 0
-0.0356149 -0.0129165 0.0795 0 100 0
-0.0252038 -0.0999554 0.0795 0 100 0
-0.0217693 0.119016 0.0795 0 100 0
-0.0155147 -0.0455917 0.0795 0 100 0
-0.039959 -0.0702995 0.0795 0 100 0
-0.0458188 0.108179 0.0795 0 100 0
-0.0170016 -0.0776233 0.0795 0 100 0
-0.000925934 -0.106387 0.0795 0 100 0
-0.00184092 0.110794 0.0795 0 100 0
-0.0377338 -0.0505294 0.0795 0 100 0
-0.0107303 0.00304947 0.0795 0 100 0
-0.00181023 -0.102246 0.0795 0 100 0
-0.000873401 -0.098863 0.0795 0 100 0
-0.0189382 -0.119415 0.0795 0 100 0
-0.00964909 0.121237 0.0795 0 100 0
-0.0357396 -0.0436987 0.0795 0 100 0
-0.0249465 0.10492 0.0795 0 100 0
-0.0428516 -0.000840998 0.0795 0 100 0
-0.0324904 0.112883 0.0795 0 100 0
-0.0323345 0.0278258 0.0795 0 100 0
-0.0144218 -0.0486523 0.0795 0 100 0
-0.022805 0.0430379 0.0795 0 100 0
-0.0127745 -0.113377 0.0795 0 100 0
-0.013989 -0.0984616 0.0795 0 100 0
-0.0293579 0.0752546 0.0795 0 100 0
-0.001344 -0.0686014 0.0795 0 100 0
-0.0241008 -0.0230354 0.0795 0 100 0
-0.0279724 0.0339119 0.0795 0 100 0
-0.0296298 0.0742103 0.0795 0 100 0
-0.00716458 -0.0524176 0.0795 0 100 0
-0.044642 0.00129473 0.0795 0 100 0
-0.00853325 0.0568661 0.0795 0 100 0
-0.0361905 0.0524681 0.0795 0 100 0
-0.0217619 0.0417447 0.0795 0 100 0
-0.0478681 -0.0673365 0.0795 0 100 0
-0.00651092 0.0315275 0.0795 0 100 0
-0.00752005 -0.105587 0.0795 0 100 0
-0.0375588 0.0953111 0.0795 0 100 0
-0.00905323 -0.109152 0.0795 0 100 0
-0.024037 -0.0239859 0.0795 0 100 0
-0.0106595 -0.1124 0.0795 0 100 0
-0.0138627 -0.0616568 0.0795 0 100 0
-0.0356195 -0.101078 0.0795 0 100 0
-0.0257536 0.000444475 0.0795 0 100 0
-0.0102448 -0.0133748 0.0795 0 100 0
-0.0142179 0.10502 0.0795 0 100 0
-0.0444747 -0.0851755 0.0795 0 100 0
-0.0297252 0.0351357 0.0795 0 100 0
-0.000923579 0.118996 0.0795 0 100 0
-0.0127707 -0.0782593 0.0795 0 100 0
-0.0172393 0.0463353 0.0795 0 100 0
-0.0350868 0.116114 0.0795 0 100 0
-0.020102 -0.106454 0.0795 0 100 0
-0.0480714 0.0592622 0.0795 0 100 0
-0.0296728 0.019708 0.0795 0 100 0
-0.032141 -0.0294943 0.0795 0 100 0
-0.034404 0.0526277 0.0795 0 100 0
-0.039055 -0.0772665 0.0795 0 100 0
-0.0299025 -0.11437 0.0795 0 100 0
-0.0180118 -0.0522737 0.0795 0 100 0
-0.00599922 -0.0405413 0.0795 0 100 0
-0.0488984 0.0901381 0.0795 0 100 0
-0.0148354 -0.0509178 0.0795 0 100 0
-0.0238745 0.067285 0.0795 0 100 0
-0.0207618 0.00126259 0.0795 0 100 0
-0.035632 -0.0664843 0.0795 0 100 0
-0.00986377 0.0957866 0.0795 0 100 0
-0.0145828 0.0434828 0.0795 0 100 0
-0.0054712 0.114847 0.0795 0 100 0
-0.0139687 0.0321559 0.0795 0 100 0
-0.00488419 -0.0995662 0.0795 0 100 0
-0.00889901 0.0440282 0.0795 0 100 0
-0.0133367 -0.101904 0.0795 0 100 0
-0.0495 0.0388512 0.0607549 0 100 0
-0.0495 -0.0209388 0.0430435 0 100 0
-0.0495 -0.0626686 0.0548424 0 100 0
-0.0495 0.0381985 0.0772345 0 100 0
-0.0495 -0.102267 0.0575407 0 100 0
-0.0495 0.0352687 0.0382621 0 100 0
-0.0495 -0.101729 0.0629459 0 100 0
-0.0495 -0.0415718 0.0560639 0 100 0
-0.0495 0.0901809 0.0751181 0 100 0
-0.0495 -0.116348 0.0606358 0 100 0
-0.0495 0.0230621 0.041356 0 100 0
-0.0495 -0.108161 0.0686518 0 100 0
-0.0495 -0.105666 0.0690161 0 100 0
-0.0495 -0.115865 0.0409781 0 100 0
-0.0495 0.108541 0.0785254 0 100 0
-0.0495 -0.0705237 0.0597651 0 100 0
-0.0495 0.102894 0.0640739 0 100 0
-0.0495 0.0516392 0.0716704 0 100 0
-0.0495 -0.103809 0.0389996 0 100 0
-0.0495 0.0760759 0.0334925 0 100 0
-0.0495 0.0741719 0.0320924 0 100 0
-0.0495 0.110541 0.0310909 0 100 0
-0.0495 0.0518164 0.0336095 0 100 0
-0.0495 0.106063 0.0580296 0 100 0
-0.0495 0.0268389 0.0593319 0 100 0
-0.0495 0.0482251 0.046269 0 100 0
-0.0495 -0.11728 0.0484154 0 100 0
-0.0495 -0.0750386 0.0703 0 100 0
-0.0495 0.0756386 0.0603548 0 100 0
-0.0495 -0.0131644 0.0381901 0 100 0
-0.0495 0.09553 0.0622918 0 100 0
-0.0495 -0.0926738 0.0420821 0 100 0
-0.0495 -0.0901327 0.0493382 0 100 0
-0.0495 -0.060841 0.0555886 0 100 0
-0.0495 -0.0423188 0.0345876 0 100 0
-0.0495 -0.11952 0.0326146 0 100 0
-0.0495 0.0430345 0.0533438 0 100 0
-0.0495 0.109899 0.0780438 0 100 0
-0.0495 -0.103621 0.0458173 0 100 0
-0.0495 -0.0775129 0.0584464 0 100 0
-0.0495 0.0626851 0.0734447 0 100 0
-0.0495 0.0863713 0.0740245 0 100 0
-0.0495 0.0236013 0.0662342 0 100 0
-0.0495 0.0619478 0.0534837 0 100 0
-0.0495 -0.0505288 0.0387421 0 100 0
-0.0495 0.0750127 0.0742914 0 100 0
-0.0495 0.0874841 0.0377739 0 100 0
-0.0495 -0.0346198 0.0574096 0 100 0
-0.0495 0.0541248 0.0318629 0 100 0
-0.0495 0.0360978 0.0686677 0 100 0
-0.0495 -0.0647326 0.0437702 0 100 0
-0.0495 0.103084 0.0316622 0 100 0
-0.0495 0.0288738 0.0577804 0 100 0
-0.0495 -0.106251 0.0563925 0 100 0
-0.0495 -0.0563864 0.0573629 0 100 0
-0.0495 0.100548 0.0794688 0 100 0
-0.0495 -0.0183211 0.0434139 0 100 0
-0.0495 0.0169707 0.0706258 0 100 0
-0.0495 -0.0952697 0.0508822 0 100 0
-0.0495 -0.115417 0.0333134 0 100 0
-0.0495 0.0027218 0.0652154 0 100 0
-0.0495 -0.106504 0.0763346 0 100 0
-0.0495 0.102011 0.0421204 0 100 0
-0.0495 0.110939 0.0689794 0 100 0
-0.0495 0.0718752 0.0593739 0 100 0
-0.0495 0.00736465 0.0687839 0 100 0
-0.0495 -0.00460594 0.0430174 0 100 0
-0.0495 0.115798 0.0558138 0 100 0
-0.0495 0.0972411 0.0518007 0 100 0
-0.0495 -0.0875303 0.0550062 0 100 0
-0.0495 -0.101023 0.0768114 0 100 0
-0.0495 -0.0144476 0.0342384 0 100 0
-0.0495 0.0304984 0.0416244 0 100 0
-0.0495 0.0442095 0.0566387 0 100 0
-0.0495 -0.0594388 0.0726958 0 100 0
-0.0495 -0.0858761 0.0530975 0 100 0
-0.0495 0.0452816 0.0409891 0 100 0
-0.0495 -0.116898 0.0701745 0 100 0
-0.0495 -0.0757191 0.0688107 0 100 0
-0.0495 -0.0153874 0.0672358 0 100 0
-0.0495 0.0503472 0.0659657 0 100 0
-0.0495 0.0928075 0.0471836 0 100 0
-0.0495 -0.124366 0.0493378 0 100 0
-0.0495 -0.0130336 0.0399796 0 100 0
-0.0495 -0.0346208 0.0340687 0 100 0
-0.0495 0.0515581 0.0323966 0 100 0
-0.0495 0.0273676 0.0537945 0 100 0
-0.0495 -0.0311727 0.0790724 0 100 0
-0.0495 -0.0606369 0.0435652 0 100 0
-0.0495 -0.00326993 0.0507693 0 100 0
-0.0495 0.0973222 0.0780985 0 100 0
-0.0495 0.118973 0.072731 0 100 0
-0.0495 0.0401427 0.0553633 0 100 0
-0.0495 -0.0329498 0.0387314 0 100 0
-0.0495 -0.0204131 0.0498578 0 100 0
-0.0495 -0.0750696 0.0322514 0 100 0
-0.0495 0.060633 0.0761585 0 100 0
-0.0495 0.102861 0.0715869 0 100 0
-0.0495 0.068773 0.0600451 0 100 0
-0.0495 -0.0224838 0.0782693 0 100 0
-0.0495 -0.0586829 0.0594783 0 100 0
-0.0495 0.0953984 0.0663454 0 100 0
-0.0495 -0.0707845 0.0681407 0 100 0
-0.0495 -0.0287048 0.0790469 0 100 0
-0.0495 -0.0240488 0.0794557 0 100 0
-0.0495 -0.114798 0.0775317 0 100 0
-0.0495 -0.0653384 0.067028 0 100 0
-0.0495 -0.0190143 0.0606799 0 100 0
-0.0495 0.0518993 0.0510798 0 100 0
-0.0495 0.0463834 0.057786 0 100 0
-0.0495 0.0934405 0.0447381 0 100 0
-0.0495 0.0579944 0.0486861 0 100 0
-0.0495 -0.0503547 0.0479275 0 100 0
-0.0495 -0.0740112 0.0711027 0 100 0
-0.0495 0.0846698 0.0541427 0 100 0
-0.0495 -0.0819656 0.0774801 0 100 0
-0.0495 0.0865207 0.0377438 0 100 0
-0.0495 -0.00357196 0.0336578 0 100 0
-0.0495 0.120701 0.0364683 0 100 0
-0.0495 0.045378 0.053719 0 100 0
-0.0495 -0.109423 0.0786606 0 100 0
-0.0495 0.106166 0.0668062 0 100 0
-0.0005 0.0805748 0.0443862 0 100 0
-0.0005 -0.00651362 0.0319709 0 100 0
-0.0005 -0.0880003 0.0368618 0 100 0
-0.0005 -0.043388 0.0338824 0 100 0
-0.0005 -0.0889151 0.0352314 0 100 0
-0.0005 0.0905497 0.0433076 0 100 0
-0.0005 -0.0786196 0.0368292 0 100 0
-0.0005 0.0991221 0.045477 0 100 0
-0.0005 -0.0374922 0.0554924 0 100 0
-0.0005 0.0363631 0.0763156 0 100 0
-0.0005 0.0536498 0.0382955 0 100 0
-0.0005 -0.1027 0.0389319 0 100 0
-0.0005 0.116305 0.0748279 0 100 0
-0.0005 -0.0276331 0.0331237 0 100 0
-0.0005 -0.116202 0.0447207 0 100 0
-0.0005 0.0158421 0.0423221 0 100 0
-0.0005 -0.117867 0.0637123 0 100 0
-0.0005 -0.0756847 0.0568205 0 100 0
-0.0005 0.0672997 0.0684605 0 100 0
-0.0005 -0.0526862 0.0363483 0 100 0
-0.0005 0.0790749 0.0774939 0 100 0
-0.0005 0.0928377 0.0735869 0 100 0
-0.0005 -0.0319552 0.0537337 0 100 0
-0.0005 -0.0666571 0.0700382 0 100 0
-0.0005 -0.0227187 0.0693525 0 100 0
-0.0005 -0.0901425 0.0538474 0 100 0
-0.0005 0.0134725 0.0676102 0 100 0
-0.0005 -5.5173e-05 0.0330725 0 100 0
-0.0005 0.0741101 0.0539516 0 100 0
-0.0005 0.108179 0.0710247 0 100 0
-0.0005 -0.00173377 0.0499675 0 100 0
-0.0005 0.0512322 0.0488866 0 100 0
-0.0005 -0.122492 0.0435508 0 100 0
-0.0005 0.0616388 0.0690034 0 100 0
-0.0005 -0.0284499 0.0645061 0 100 0
-0.0005 -0.0236477 0.0451787 0 100 0
-0.0005 0.0847881 0.0691053 0 100 0
-0.0005 -0.111155 0.0733686 0 100 0
-0.0005 0.0818323 0.0460225 0 100 0
-0.0005 -0.024517 0.0414711 0 100 0
-0.0005 0.032962 0.0481236 0 100 0
-0.0005 -0.0072559 0.0411747 0 100 0
-0.0005 -0.0584897 0.0685536 0 100 0
-0.0005 0.0250589 0.0535825 0 100 0
-0.0005 -0.0264799 0.0352396 0 100 0
-0.0005 -0.109007 0.0532345 0 100 0
-0.0005 -0.0560998 0.0325904 0 100 0
-0.0005 0.106447 0.073907 0 100 0
-0.0005 0.0912574 0.0555005 0 100 0
-0.0005 -0.0718016 0.068557 0 100 0
-0.0005 -0.0765839 0.0531715 0 100 0
-0.0005 0.0936511 0.040957 0 100 0
-0.0005 0.0353083 0.0577107 0 100 0
-0.0005 -0.061425 0.0612578 0 100 0
-0.0005 0.0148078 0.051724 0 100 0
-0.0005 -0.105531 0.0436151 0 100 0
-0.0005 0.0467403 0.0743725 0 100 0
-0.0005 0.0197532 0.0601681 0 100 0
-0.0005 0.0229121 0.0402462 0 100 0
-0.0005 0.0937103 0.0750924 0 100 0
-0.0005 -0.0396954 0.0646056 0 100 0
-0.0005 -0.0961549 0.0699657 0 100 0
-0.0005 0.0427978 0.0731877 0 100 0
-0.0005 0.105187 0.0326684 0 100 0
-0.0005 -0.11941 0.0778366 0 100 0
-0.0005 0.116598 0.0422096 0 100 0
-0.0005 -0.0199915 0.060945 0 100 0
-0.0005 -0.0543988 0.0460153 0 100 0
-0.0005 0.0152991 0.0578933 0 100 0
-0.0005 0.00723847 0.0586758 0 100 0
-0.0005 0.119836 0.0305488 0 100 0
-0.0005 0.0322736 0.0398224 0 100 0
-0.0005 0.093659 0.0543139 0 100 0
-0.0005 0.0921869 0.062963 0 100 0
-0.0005 -0.0555949 0.0555114 0 100 0
-0.0005 0.0282796 0.0694244 0 100 0
-0.0005 -0.0999487 0.0738719 0 100 0
-0.0005 0.0995044 0.0312753 0 100 0
-0.0005 0.000361269 0.0419867 0 100 0
-0.0005 0.0928727 0.0714956 0 100 0
-0.0005 -0.0810377 0.0573169 0 100 0
-0.0005 -0.060548 0.0725303 0 100 0
-0.0005 -0.028372 0.0667977 0 100 0
-0.0005 -0.0202757 0.0754214 0 100 0
-0.0005 0.0647246 0.0649395 0 100 0
-0.0005 -0.0795305 0.0769762 0 100 0
-0.0005 0.0266643 0.0731105 0 100 0
-0.0005 0.0173575 0.034282 0 100 0
-0.0005 -0.101883 0.031073 0 100 0
-0.0005 0.0930991 0.0386885 0 100 0
-0.0005 0.0275774 0.0416478 0 100 0
-0.0005 0.074073 0.042617 0 100 0
-0.0005 0.00784341 0.0744025 0 100 0
-0.0005 -0.114338 0.0523178 0 100 0
-0.0005 -0.116433 0.0494692 0 100 0
-0.0005 0.11254 0.0523906 0 100 0
-0.0005 0.00649217 0.0420561 0 100 0
-0.0005 -0.0397864 0.0771554 0 100 0
-0.0005 -0.00825797 0.0482641 0 100 0
-0.0005 0.0328397 0.0412556 0 100 0
-0.0005 -0.0239899 0.0785254 0 100 0
-0.0005 -0.102412 0.0640792 0 100 0
-0.0005 -0.0703803 0.044039 0 100 0
-0.0005 0.00944384 0.0355575 0 100 0
-0.0005 0.0475649 0.0511816 0 100 0
-0.0005 0.008668 0.0572166 0 100 0
-0.0005 -0.00407696 0.0723516 0 100 0
-0.0005 0.0100435 0.0403778 0 100 0
-0.0005 0.0359817 0.049235 0 100 0
-0.0005 0.121 0.039423 0 100 0
-0.0005 0.0135684 0.0626596 0 100 0
-0.0005 0.123677 0.0514009 0 100 0
-0.0005 0.0480734 0.0558986 0 100 0
-0.0005 -0.0932947 0.0692741 0 100 0
-0.0005 0.0350807 0.0568354 0 100 0
-0.0005 0.00851236 0.0441422 0 100 0
-0.0005 0.106047 0.0748708 0 100 0
-0.0005 -0.0760007 0.0784247 0 100 0
-0.0005 0.0452142 0.0685114 0 100 0
-0.0005 -0.118859 0.0556227 0 100 0
-0.0005 0.0400965 0.0344435 0 100 0
-0.0005 -0.120118 0.0381143 0 100 0
-0.0244467 0.1245 0.0516269 0 100 0
-0.00606076 0.1245 0.0353724 0 100 0
-0.0310072 0.1245 0.0588197 0 100 0
-0.0243259 0.1245 0.0541924 0 100 0
-0.0371046 0.1245 0.0511638 0 100 0
-0.0110677 0.1245 0.0433865 0 100 0
-0.0479287 0.1245 0.0379438 0 100 0
-0.024712 0.1245 0.0650283 0 100 0
-0.0377879 0.1245 0.070497 0 100 0
-0.0303897 0.1245 0.0632238 0 100 0
-0.0492417 0.1245 0.0549816 0 100 0
-0.0110603 0.1245 0.0721464 0 100 0
-0.00940356 0.1245 0.067624 0 100 0
-0.0266972 0.1245 0.0583663 0 100 0
-0.042734 0.1245 0.0601912 0 100 0
-0.0439942 0.1245 0.0763984 0 100 0
-0.0143651 0.1245 0.0309363 0 100 0
-0.0220839 0.1245 0.0634108 0 100 0
-0.0203539 0.1245 0.0397843 0 100 0
-0.0138865 0.1245 0.0643546 0 100 0
-0.00973659 0.1245 0.0706717 0 100 0
-0.0330396 0.1245 0.0645453 0 100 0
-0.0421075 0.1245 0.0766126 0 100 0
-0.0494491 0.1245 0.0659502 0 100 0
-0.0252937 -0.1245 0.0683989 0 100 0
-0.0173175 -0.1245 0.0604439 0 100 0
-0.0140183 -0.1245 0.0671567 0 100 0
-0.00377732 -0.1245 0.0351397 0 100 0
-0.0019365 -0.1245 0.056402 0 100 0
-0.0427534 -0.1245 0.0336745 0 100 0
-0.0272789 -0.1245 0.0326419 0 100 0
-0.0436494 -0.1245 0.0678155 0 100 0
-0.0450984 -0.1245 0.058932 0 100 0
-0.033503 -0.1245 0.0407674 0 100 0
-0.0105448 -0.1245 0.0593621 0 100 0
-0.0468073 -0.1245 0.0713459 0 100 0
-0.0290394 -0.1245 0.0467606 0 100 0
-0.0274097 -0.1245 0.0430678 0 100 0
-0.0269248 -0.1245 0.0658595 0 100 0
-0.00405646 -0.1245 0.070834 0 100 0
-0.0135486 -0.1245 0.0375686 0 100 0
-0.0319506 -0.1245 0.0654569 0 100 0
-0.00112917 -0.1245 0.0460298 0 100 0
-0.00138149 -0.1245 0.0750531 0 100 0
-0.0151956 -0.1245 0.0521764 0 100 0
-0.0345936 -0.1245 0.0308807 0 100 0
-0.0390152 -0.1245 0.064086 0 100 0
-0.0213364 -0.1245 0.043006 0 100 0
-0.326745 -0.021739 0.0305 0 100 0
-0.291892 -0.0175822 0.0305 0 100 0
-0.0432513 -0.000367566 0.0305 0 100 0
-0.0852648 0.00576091 0.0305 0 100 0
-0.355363 0.00389529 0.0305 0 100 0
-0.297254 0.00591154 0.0305 255 0 0
-0.152953 0.0108196 0.0305 0 100 0
-0.351435 -0.0123772 0.0305 0 100 0
-0.237135 0.00813639 0.0305 0 100 0
-0.215894 0.0233995 0.0305 0 100 0
-0.0789899 0.00578967 0.0305 0 100 0
-0.0727156 -0.00983138 0.0305 0 100 0
-0.206294 0.00853968 0.0305 0 100 0
-0.196664 0.0114435 0.0305 0 100 0
-0.268482 0.0201487 0.0305 0 100 0
-0.261462 0.00697264 0.0305 0 100 0
-0.213534 0.0163167 0.0305 0 100 0
-0.156546 0.0139563 0.0305 0 100 0
-0.320801 0.0109659 0.0305 0 100 0
-0.0298663 0.00546357 0.0305 0 100 0
-0.198032 -0.00877844 0.0305 0 100 0
-0.270896 -0.0186063 0.0305 0 100 0
-0.367922 -0.00102916 0.0305 0 100 0
-0.260109 -0.0243581 0.0305 0 100 0
-0.213176 -0.00231281 0.0305 0 100 0
-0.13087 0.00640235 0.0305 0 100 0
-0.167467 0.0151007 0.0305 0 100 0
-0.159541 -0.0149897 0.0305 0 100 0
-0.188187 0.00768281 0.0305 0 100 0
-0.0516048 0.00237587 0.0305 0 100 0
-0.146707 0.0240081 0.0305 0 100 0
-0.307461 0.0218415 0.0305 0 100 0
-0.217732 -0.00980006 0.0305 0 100 0
-0.146549 -0.0188767 0.0305 0 100 0
-0.0735345 -0.00916295 0.0305 0 100 0
-0.0644026 0.00398788 0.0305 0 100 0
-0.0847524 0.0207324 0.0305 0 100 0
-0.342229 -0.0164496 0.0305 0 100 0
-0.134077 -0.00770109 0.0305 0 100 0
-0.266692 -0.00797346 0.0305 0 100 0
-0.257826 0.00699753 0.0305 0 100 0
-0.186822 0.0158447 0.0305 0 100 0
-0.368514 0.0107341 0.0305 0 100 0
-0.346512 0.0184324 0.0305 0 100 0
-0.286976 -0.0161676 0.0305 0 100 0
-0.0943862 -0.0021092 0.0305 0 100 0
-0.0962582 -0.0202372 0.0305 0 100 0
-0.327637 -0.0014508 0.0305 0 100 0
-0.0935293 -0.0182317 0.0305 0 100 0
-0.148668 -0.0189079 0.0305 0 100 0
-0.209758 0.00724232 0.0305 0 100 0
-0.339943 -0.0175273 0.0305 0 100 0
-0.109853 0.00587749 0.0305 0 100 0
-0.182466 -0.0051768 0.0305 0 100 0
-0.0806008 -0.00947924 0.0305 0 100 0
-0.0773293 -0.0160436 0.0305 0 100 0
-0.223319 0.0236285 0.0305 0 100 0
-0.22789 0.0119059 0.0305 0 100 0
-0.16832 -0.00157093 0.0305 0 100 0
-0.187539 -0.0217365 0.0305 0 100 0
-0.0267925 -0.00954825 0.0305 0 100 0
-0.124822 -0.0107999 0.0305 0 100 0
-0.250998 -0.0129819 0.0305 0 100 0
-0.319544 0.0211156 0.0305 0 100 0
-0.324982 -0.0240377 0.0305 0 100 0
-0.268424 -0.00543028 0.0305 0 100 0
-0.273529 -0.0141575 0.0305 0 100 0
-0.128379 0.0236031 0.0305 0 100 0
-0.259696 -0.0027344 0.0305 0 100 0
-0.312063 -0.0241824 0.0305 0 100 0
-0.317194 -0.00076799 0.0305 0 100 0
-0.134944 0.0181974 0.0305 0 100 0
-0.0311702 -0.00938598 0.0305 0 100 0
-0.322795 -0.000302475 0.0305 0 100 0
-0.316688 0.0113082 0.0305 0 100 0
-0.133122 0.0115821 0.0305 0 100 0
-0.10563 0.011029 0.0305 0 100 0
-0.189205 -0.00857606 0.0305 0 100 0
-0.368286 -0.0229718 0.0305 0 100 0
-0.127195 -0.00500094 0.0305 0 100 0
-0.0721277 -0.0124419 0.0305 0 100 0
-0.168481 -0.022962 0.0305 0 100 0
-0.17024 0.00743915 0.0305 0 100 0
-0.256901 -0.0143492 0.0305 0 100 0
-0.29396 0.0048321 0.0305 0 100 0
-0.215583 0.0244742 0.0305 0 100 0
-0.226776 0.00870721 0.0305 0 100 0
-0.296147 -0.0191469 0.0305 255 0 0
-0.270009 0.0220294 0.0305 0 100 0
-0.11323 0.0182772 0.0305 0 100 0
-0.354358 0.0149553 0.0305 0 100 0
-0.247801 -0.0241363 0.0305 0 100 0
-0.184186 -0.0126202 0.0305 0 100 0
-0.180115 0.0163073 0.0305 0 100 0
-0.177463 -0.012977 0.0305 0 100 0
-0.0288408 0.00731296 0.0305 0 100 0
-0.13077 -0.0115068 0.0305 0 100 0
-0.228732 -0.00695711 0.0305 0 100 0
-0.288222 0.00234848 0.0305 0 100 0
-0.0790347 0.00272133 0.0305 0 100 0
-0.0561339 -0.00389079 0.0305 0 100 0
-0.261976 -0.0100564 0.0305 0 100 0
-0.299113 -0.00367023 0.0305 255 0 0
-0.271567 -0.00557727 0.0305 0 100 0
-0.252115 -0.0185399 0.0305 0 100 0
-0.232926 0.00630653 0.0305 0 100 0
-0.0455213 -0.00980612 0.0305 0 100 0
-0.261322 0.00134994 0.0305 0 100 0
-0.370267 -0.0109018 0.0305 0 100 0
-0.267075 -0.00459426 0.0305 0 100 0
-0.106886 0.0201336 0.0305 0 100 0
-0.118356 0.01183 0.0305 0 100 0
-0.364269 -0.0177361 0.0305 0 100 0
-0.164889 -0.0194817 0.0305 0 100 0
-0.112144 0.00508954 0.0305 0 100 0
-0.163903 0.0148151 0.0305 0 100 0
-0.347993 -0.02012 0.0305 0 100 0
-0.133046 0.0187636 0.0305 0 100 0
-0.242463 -0.00637676 0.0305 0 100 0
-0.345348 0.0212407 0.0305 0 100 0
-0.0357909 0.0134856 0.0305 0 100 0
-0.313069 0.0202874 0.0305 0 100 0
-0.275764 -0.018211 0.0305 0 100 0
-0.115483 0.0117172 0.0305 0 100 0
-0.0706048 0.022043 0.0305 0 100 0
-0.312246 -0.0209096 0.0305 0 100 0
-0.147424 -0.00862175 0.0305 0 100 0
-0.051735 -0.00988999 0.0305 0 100 0
-0.0571879 0.00674751 0.0305 0 100 0
-0.316598 0.0201307 0.0305 0 100 0
-0.244585 0.0213997 0.0305 0 100 0
-0.311881 -0.00228754 0.0305 0 100 0
-0.222939 0.00936913 0.0305 0 100 0
-0.17456 -0.00919741 0.0305 0 100 0
-0.0744932 0.012298 0.0305 0 100 0
-0.195959 0.0236879 0.0305 0 100 0
-0.163095 -0.00342674 0.0305 0 100 0
-0.189698 0.000288782 0.0305 0 100 0
-0.165199 -0.00172616 0.0305 0 100 0
-0.145345 -0.0231643 0.0305 0 100 0
-0.172731 0.0103691 0.0305 0 100 0
-0.075637 0.00205139 0.0305 0 100 0
-0.129841 0.0241734 0.0305 0 100 0
-0.343986 0.0121184 0.0305 0 100 0
-0.275345 0.00362511 0.0305 0 100 0
-0.237784 -0.02303 0.0305 0 100 0
-0.089055 -0.0226457 0.0305 0 100 0
-0.130541 0.0136399 0.0305 0 100 0
-0.212645 -0.0158169 0.0305 0 100 0
-0.0423468 -0.0045005 0.0305 0 100 0
-0.358559 -0.011929 0.0305 0 100 0
-0.322791 0.0235844 0.0305 0 100 0
-0.0912957 0.0118435 0.0305 0 100 0
-0.20046 -0.0199978 0.0305 0 100 0
-0.300617 -0.0210384 0.0305 255 0 0
-0.316505 -0.0185202 0.0305 0 100 0
-0.199174 -0.0236318 0.0305 0 100 0
-0.259466 0.0035477 0.0305 0 100 0
-0.276492 0.00658392 0.0305 0 100 0
-0.265399 -0.00964215 0.0305 0 100 0
-0.175728 0.00746453 0.0305 0 100 0
-0.193003 0.016934 0.0305 0 100 0
-0.306095 -0.0194144 0.0305 0 100 0
-0.345494 -0.00284837 0.0305 0 100 0
-0.118881 -0.0104136 0.0305 0 100 0
-0.170745 -0.0125745 0.0305 0 100 0
-0.0375048 0.0189582 0.0305 0 100 0
-0.0397307 0.0187544 0.0305 0 100 0
-0.271507 0.00310956 0.0305 0 100 0
-0.177555 0.00472051 0.0305 0 100 0
-0.200502 -0.0200987 0.0305 0 100 0
-0.0539478 -0.0170956 0.0795 0 100 0
-0.245971 0.00598181 0.0795 0 100 0
-0.293846 0.00406642 0.0795 0 100 0
-0.332773 -0.00799114 0.0795 0 100 0
-0.350986 -0.0129764 0.0795 0 100 0
-0.105723 -0.0223899 0.0795 0 100 0
-0.126849 0.0202547 0.0795 0 100 0
-0.264064 0.0222979 0.0795 0 100 0
-0.327599 0.00369683 0.0795 0 100 0
-0.256973 0.0150747 0.0795 0 100 0
-0.0261615 0.020764 0.0795 0 100 0
-0.280703 0.00959399 0.0795 0 100 0
-0.279398 -0.0201674 0.0795 0 100 0
-0.293066 0.0121565 0.0795 0 100 0
-0.179389 0.0148635 0.0795 0 100 0
-0.171726 -0.0199934 0.0795 0 100 0
-0.322417 -0.00147347 0.0795 0 100 0
-0.119366 -0.00823926 0.0795 0 100 0
-0.202165 -0.0219502 0.0795 0 100 0
-0.257461 -0.000103901 0.0795 0 100 0
-0.367702 0.00541339 0.0795 0 100 0
-0.311583 7.80477e-05 0.0795 0 100 0
-0.0749191 0.0236017 0.0795 0 100 0
-0.115701 0.0092471 0.0795 0 100 0
-0.184804 0.0198299 0.0795 0 100 0
-0.293768 -0.00795865 0.0795 0 100 0
-0.203732 0.00924189 0.0795 0 100 0
-0.0405162 0.012999 0.0795 0 100 0
-0.302527 -0.0199972 0.0795 255 0 0
-0.359398 0.00601397 0.0795 0 100 0
-0.353774 0.00736692 0.0795 0 100 0
-0.191906 -0.00267422 0.0795 0 100 0
-0.0722838 -0.00991089 0.0795 0 100 0
-0.0501345 -0.015876 0.0795 0 100 0
-0.0984788 0.0176016 0.0795 0 100 0
-0.353204 0.0213083 0.0795 0 100 0
-0.148411 0.0221691 0.0795 0 100 0
-0.0928606 0.00389044 0.0795 0 100 0
-0.13357 0.0125533 0.0795 0 100 0
-0.247938 0.00296983 0.0795 0 100 0
-0.322851 -0.00100586 0.0795 0 100 0
-0.107637 0.0115621 0.0795 0 100 0
-0.239495 0.0133212 0.0795 0 100 0
-0.0501669 0.0176324 0.0795 0 100 0
-0.029795 0.0232856 0.0795 0 100 0
-0.117826 -0.0213375 0.0795 0 100 0
-0.247259 0.0228525 0.0795 0 100 0
-0.245087 0.0194162 0.0795 0 100 0
-0.146954 -0.00296289 0.0795 0 100 0
-0.254837 -0.0120765 0.0795 0 100 0
-0.059222 0.00709688 0.0795 0 100 0
-0.328159 0.0237225 0.0795 0 100 0
-0.347938 -0.0222031 0.0795 0 100 0
-0.0954307 -0.000506559 0.0795 0 100 0
-0.265845 0.0034584 0.0795 0 100 0
-0.261111 0.0236285 0.0795 0 100 0
-0.208347 0.0226673 0.0795 0 100 0
-0.130716 0.00219076 0.0795 0 100 0
-0.181877 -0.024268 0.0795 0 100 0
-0.349473 0.00765709 0.0795 0 100 0
-0.110606 -0.0178246 0.0795 0 100 0
-0.208234 0.011056 0.0795 0 100 0
-0.233794 -0.00681597 0.0795 0 100 0
-0.168911 -0.0238123 0.0795 0 100 0
-0.0763941 -0.00220238 0.0795 0 100 0
-0.187453 0.0143535 0.0795 0 100 0
-0.106757 -0.0108376 0.0795 0 100 0
-0.141018 -0.0019642 0.0795 0 100 0
-0.243563 0.010472 0.0795 0 100 0
-0.107745 -0.0184771 0.0795 0 100 0
-0.0495178 0.00772337 0.0795 0 100 0
-0.0303087 -0.022584 0.0795 0 100 0
-0.117357 0.000395591 0.0795 0 100 0
-0.269198 0.0227672 0.0795 0 100 0
-0.363695 -0.0241852 0.0795 0 100 0
-0.0780243 0.0200437 0.0795 0 100 0
-0.325736 -0.018527 0.0795 0 100 0
-0.236203 0.0175516 0.0795 0 100 0
-0.0419388 -0.0204658 0.0795 0 100 0
-0.287037 -0.0162504 0.0795 0 100 0
-0.185751 -0.00466044 0.0795 0 100 0
-0.283036 0.000977161 0.0795 0 100 0
-0.0491465 -0.0204303 0.0795 0 100 0
-0.257613 0.01598 0.0795 0 100 0
-0.270426 -0.0133661 0.0795 0 100 0
-0.191955 0.00354642 0.0795 0 100 0
-0.223991 -0.00984476 0.0795 0 100 0
-0.307735 0.0130173 0.0795 0 100 0
-0.0756161 0.0123243 0.0795 0 100 0
-0.249225 -0.011916 0.0795 0 100 0
-0.353263 0.0183229 0.0795 0 100 0
-0.344998 -0.00340171 0.0795 0 100 0
-0.292563 0.00714748 0.0795 0 100 0
-0.2816 -0.0138678 0.0795 0 100 0
-0.131742 0.0118014 0.0795 0 100 0
-0.0630482 0.0226248 0.0795 0 100 0
-0.227674 0.0200386 0.0795 0 100 0
-0.191013 -0.0100276 0.0795 0 100 0
-0.236635 0.0155812 0.0795 0 100 0
-0.116672 0.0138387 0.0795 0 100 0
-0.260169 -0.0208431 0.0795 0 100 0
-0.195825 0.0223886 0.0795 0 100 0
-0.240469 -0.0184686 0.0795 0 100 0
-0.180037 0.0118583 0.0795 0 100 0
-0.372433 0.0238004 0.0795 0 100 0
-0.0984761 0.00719135 0.0795 0 100 0
-0.076312 -0.000755907 0.0795 0 100 0
-0.0757913 0.0147975 0.0795 0 100 0
-0.336598 -0.00770168 0.0795 0 100 0
-0.0995837 -0.0086601 0.0795 0 100 0
-0.353303 -0.00453864 0.0795 0 100 0
-0.0517355 -0.0240094 0.0795 0 100 0
-0.163917 -0.00395015 0.0795 0 100 0
-0.0386923 -0.00830876 0.0795 0 100 0
-0.354699 -0.0189933 0.0795 0 100 0
-0.0688811 -0.0174805 0.0795 0 100 0
-0.347082 0.00941166 0.0795 0 100 0
-0.248251 -0.00856451 0.0795 0 100 0
-0.215206 -0.0157501 0.0795 0 100 0
-0.179982 -0.00403605 0.0795 0 100 0
-0.362451 -0.0152421 0.0795 0 100 0
-0.104575 0.0146574 0.0795 0 100 0
-0.0627019 -0.0233997 0.0795 0 100 0
-0.279807 0.00608112 0.0795 0 100 0
-0.30952 -0.0171543 0.0795 0 100 0
-0.0575579 -0.0086098 0.0795 0 100 0
-0.265795 -0.00808575 0.0795 0 100 0
-0.308612 -0.0199685 0.0795 0 100 0
-0.20051 -0.00519291 0.0795 0 100 0
-0.253636 -0.00995075 0.0795 0 100 0
-0.349604 0.00364755 0.0795 0 100 0
-0.0621857 0.00993933 0.0795 0 100 0
-0.234346 -0.00965041 0.0795 0 100 0
-0.224117 -0.0202693 0.0795 0 100 0
-0.0864681 -0.00475593 0.0795 0 100 0
-0.228003 0.0128718 0.0795 0 100 0
-0.140622 -0.0104391 0.0795 0 100 0
-0.100119 0.00228457 0.0795 0 100 0
-0.341207 -0.00301765 0.0795 0 100 0
-0.178343 0.00611381 0.0795 0 100 0
-0.183305 0.0231125 0.0795 0 100 0
-0.317841 -0.0111058 0.0795 0 100 0
-0.223724 0.00774336 0.0795 0 100 0
-0.0695485 -0.0191656 0.0795 0 100 0
-0.0451404 0.00101211 0.0795 0 100 0
-0.106331 0.000416189 0.0795 0 100 0
-0.141765 0.013136 0.0795 0 100 0
-0.227578 -0.00706649 0.0795 0 100 0
-0.0268571 -0.0242699 0.0795 0 100 0
-0.0761107 -0.00203179 0.0795 0 100 0
-0.0551909 -0.0171313 0.0795 0 100 0
-0.23118 0.0213911 0.0795 0 100 0
-0.240254 -0.00957098 0.0795 0 100 0
-0.304273 0.0129843 0.0795 255 0 0
-0.249614 0.00169096 0.0795 0 100 0
-0.102186 -0.0211425 0.0795 0 100 0
-0.268072 -0.0238109 0.0795 0 100 0
-0.369632 -0.0215103 0.0795 0 100 0
-0.196312 -0.00308359 0.0795 0 100 0
-0.0527732 -0.0130398 0.0795 0 100 0
-0.0509722 -0.0233056 0.0795 0 100 0
-0.290468 0.00727435 0.0795 0 100 0
-0.212578 0.00445466 0.0795 0 100 0
-0.229815 0.000322629 0.0795 0 100 0
-0.11125 0.00042282 0.0795 0 100 0
-0.301444 0.00739026 0.0795 255 0 0
-0.0680476 -0.00274544 0.0795 0 100 0
-0.350968 -0.0238775 0.0795 0 100 0
-0.213199 0.0234944 0.0795 0 100 0
-0.350961 -0.0214211 0.0795 0 100 0
-0.16093 0.024136 0.0795 0 100 0
-0.3745 -0.0131306 0.0699934 0 100 0
-0.3745 0.015544 0.0312112 0 100 0
-0.3745 0.0178818 0.0743339 0 100 0
-0.3745 -0.0178867 0.0736243 0 100 0
-0.3745 0.00925847 0.0771968 0 100 0
-0.3745 -0.00807516 0.0600502 0 100 0
-0.3745 0.00407062 0.0533226 0 100 0
-0.3745 -0.0151947 0.0405768 0 100 0
-0.3745 0.00769593 0.0365327 0 100 0
-0.3745 0.00100832 0.0461851 0 100 0
-0.3745 0.000546778 0.0740975 0 100 0
-0.3745 -0.000162156 0.066897 0 100 0
-0.3745 -0.005379 0.0678563 0 100 0
-0.3745 -0.01126 0.0411568 0 100 0
-0.3745 -0.0185718 0.0748657 0 100 0
-0.3745 0.022594 0.063475 0 100 0
-0.3745 -0.0178262 0.0749861 0 100 0
-0.3745 0.00321279 0.043557 0 100 0
-0.3745 0.0117671 0.0507741 0 100 0
-0.3745 0.0156563 0.0350678 0 100 0
-0.3745 -0.00151756 0.0615056 0 100 0
-0.3745 -0.0127227 0.0318334 0 100 0
-0.3745 -0.0119931 0.0310499 0 100 0
-0.3745 0.0165349 0.0510253 0 100 0
-0.0255 -0.000371944 0.047247 0 100 0
-0.0255 -0.00623288 0.0420342 0 100 0
-0.0255 -0.0115704 0.0408612 0 100 0
-0.0255 -0.0123543 0.0683537 0 100 0
-0.0255 0.00188158 0.0398284 0 100 0
-0.0255 0.00640349 0.0345202 0 100 0
-0.0255 0.000985219 0.0678243 0 100 0
-0.0255 -0.0195411 0.0560113 0 100 0
-0.0255 -0.0121359 0.0783105 0 100 0
-0.0255 0.0152618 0.0436268 0 100 0
-0.0255 -0.000141286 0.0773569 0 100 0
-0.0255 -0.0242152 0.0756858 0 100 0
-0.0255 0.00319496 0.0479248 0 100 0
-0.0255 -0.0186058 0.0646641 0 100 0
-0.0255 0.0163865 0.0536741 0 100 0
-0.0255 0.0101089 0.0570871 0 100 0
-0.0255 -0.0036406 0.0766888 0 100 0
-0.0255 0.0132146 0.049925 0 100 0
-0.0255 -0.0186089 0.0574038 0 100 0
-0.0255 0.000773702 0.0528047 0 100 0
-0.0255 0.00854527 0.0636847 0 100 0
-0.0255 0.0201803 0.0716634 0 100 0
-0.0255 -0.0135523 0.057225 0 100 0
-0.0255 -0.0237398 0.0407568 0 100 0
-0.190791 0.0245 0.0752978 0 100 0
-0.207133 0.0245 0.0620875 0 100 0
-0.334549 0.0245 0.0468848 0 100 0
-0.322851 0.0245 0.0336383 0 100 0
-0.240456 0.0245 0.0485229 0 100 0
-0.290806 0.0245 0.0524848 0 100 0
-0.180611 0.0245 0.072579 0 100 0
-0.179387 0.0245 0.0738807 0 100 0
-0.185088 0.0245 0.0698772 0 100 0
-0.298882 0.0245 0.0372975 255 0 0
-0.306497 0.0245 0.0339656 0 100 0
-0.171139 0.0245 0.0692773 0 100 0
-0.0977151 0.0245 0.0502663 0 100 0
-0.31143 0.0245 0.0479712 0 100 0
-0.366692 0.0245 0.0775607 0 100 0
-0.205575 0.0245 0.0470041 0 100 0
-0.347304 0.0245 0.0781778 0 100 0
-0.247092 0.0245 0.0567154 0 100 0
-0.192745 0.0245 0.0338669 0 100 0
-0.284593 0.0245 0.050132 0 100 0
-0.257658 0.0245 0.0539225 0 100 0
-0.052971 0.0245 0.0505509 0 100 0
-0.0758116 0.0245 0.034402 0 100 0
-0.0928632 0.0245 0.0446521 0 100 0
-0.140863 0.0245 0.0530063 0 100 0
-0.210479 0.0245 0.0734776 0 100 0
-0.0929301 0.0245 0.0702492 0 100 0
-0.361744 0.0245 0.0647351 0 100 0
-0.127902 0.0245 0.0711199 0 100 0
-0.246289 0.0245 0.0630183 0 100 0
-0.176748 0.0245 0.0630219 0 100 0
-0.0329334 0.0245 0.0736007 0 100 0
-0.286559 0.0245 0.0589835 0 100 0
-0.180161 0.0245 0.0506812 0 100 0
-0.179439 0.0245 0.0363791 0 100 0
-0.251694 0.0245 0.0410735 0 100 0
-0.0838641 0.0245 0.0366488 0 100 0
-0.214235 0.0245 0.043222 0 100 0
-0.287983 0.0245 0.0527577 0 100 0
-0.15247 0.0245 0.0765252 0 100 0
-0.14449 0.0245 0.0458377 0 100 0
-0.357019 0.0245 0.0452098 0 100 0
-0.25664 0.0245 0.0726652 0 100 0
-0.243196 0.0245 0.0516646 0 100 0
-0.315918 0.0245 0.0627819 0 100 0
-0.0796802 0.0245 0.0701015 0 100 0
-0.12478 0.0245 0.0543499 0 100 0
-0.0787126 0.0245 0.0378944 0 100 0
-0.261816 0.0245 0.0412706 0 100 0
-0.114388 0.0245 0.0486464 0 100 0
-0.249415 0.0245 0.043518 0 100 0
-0.306514 0.0245 0.049293 0 100 0
-0.042574 0.0245 0.0506065 0 100 0
-0.197573 0.0245 0.0632973 0 100 0
-0.209447 0.0245 0.0711245 0 100 0
-0.16127 0.0245 0.0616721 0 100 0
-0.345023 0.0245 0.0688792 0 100 0
-0.0724963 0.0245 0.0381941 0 100 0
-0.27359 0.0245 0.0467471 0 100 0
-0.124167 0.0245 0.0480921 0 100 0
-0.302283 0.0245 0.0540996 255 0 0
-0.0606899 0.0245 0.0329012 0 100 0
-0.328612 0.0245 0.0723565 0 100 0
-0.121671 0.0245 0.0435973 0 100 0
-0.138301 0.0245 0.0392402 0 100 0
-0.0932057 0.0245 0.0366747 0 100 0
-0.0298604 0.0245 0.0560145 0 100 0
-0.323518 0.0245 0.0339801 0 100 0
-0.30729 0.0245 0.0412755 0 100 0
-0.162509 0.0245 0.0497249 0 100 0
-0.157778 0.0245 0.0699451 0 100 0
-0.224761 0.0245 0.0596786 0 100 0
-0.229231 0.0245 0.0698411 0 100 0
-0.23784 0.0245 0.0507319 0 100 0
-0.199674 0.0245 0.0448615 0 100 0
-0.272105 0.0245 0.0400329 0 100 0
-0.131179 0.0245 0.0460372 0 100 0
-0.348321 0.0245 0.0580516 0 100 0
-0.368117 0.0245 0.0338821 0 100 0
-0.205494 0.0245 0.0578927 0 100 0
-0.14037 0.0245 0.0729551 0 100 0
-0.156517 0.0245 0.0504022 0 100 0
-0.30597 0.0245 0.0577748 0 100 0
-0.121591 0.0245 0.0391253 0 100 0
-0.0685187 0.0245 0.0584597 0 100 0
-0.246377 0.0245 0.0366282 0 100 0
-0.192255 0.0245 0.0777708 0 100 0
-0.262599 0.0245 0.0717144 0 100 0
-0.229049 0.0245 0.0727728 0 100 0
-0.247271 0.0245 0.0724002 0 100 0
-0.212126 0.0245 0.0771029 0 100 0
-0.299278 0.0245 0.0440365 255 0 0
-0.150335 0.0245 0.0453001 0 100 0
-0.231888 0.0245 0.0714453 0 100 0
-0.037618 0.0245 0.0324281 0 100 0
-0.0597853 0.0245 0.0447672 0 100 0
-0.231458 0.0245 0.0588447 0 100 0
-0.0888219 0.0245 0.0706742 0 100 0
-0.0745014 0.0245 0.0491373 0 100 0
-0.250074 0.0245 0.0391415 0 100 0
-0.0854409 0.0245 0.0432168 0 100 0
-0.176684 0.0245 0.0703483 0 100 0
-0.214338 0.0245 0.0595486 0 100 0
-0.177662 0.0245 0.0663881 0 100 0
-0.274141 0.0245 0.0396343 0 100 0
-0.0478957 0.0245 0.0461138 0 100 0
-0.337956 0.0245 0.078561 0 100 0
-0.0859385 0.0245 0.0361013 0 100 0
-0.0846241 0.0245 0.0334792 0 100 0
-0.340897 0.0245 0.0392569 0 100 0
-0.366834 0.0245 0.0511985 0 100 0
-0.232902 0.0245 0.0587053 0 100 0
-0.3646 0.0245 0.0309613 0 100 0
-0.249869 0.0245 0.037902 0 100 0
-0.198155 0.0245 0.0579968 0 100 0
-0.106022 0.0245 0.053793 0 100 0
-0.304429 0.0245 0.0486081 255 0 0
-0.222627 0.0245 0.0346903 0 100 0
-0.166569 0.0245 0.0429937 0 100 0
-0.258343 0.0245 0.059971 0 100 0
-0.031581 0.0245 0.03625 0 100 0
-0.345016 0.0245 0.0398641 0 100 0
-0.209716 0.0245 0.0768853 0 100 0
-0.143017 0.0245 0.0407404 0 100 0
-0.313391 0.0245 0.0480847 0 100 0
-0.217542 0.0245 0.0510509 0 100 0
-0.344059 0.0245 0.0725514 0 100 0
-0.0729556 0.0245 0.0492301 0 100 0
-0.0902318 0.0245 0.0312349 0 100 0
-0.252461 0.0245 0.0698053 0 100 0
-0.0815133 0.0245 0.0535422 0 100 0
-0.261163 0.0245 0.0344028 0 100 0
-0.235291 0.0245 0.0524007 0 100 0
-0.294825 0.0245 0.0767188 0 100 0
-0.247945 0.0245 0.0373501 0 100 0
-0.359189 0.0245 0.0741214 0 100 0
-0.0930805 0.0245 0.0480969 0 100 0
-0.368902 0.0245 0.0718454 0 100 0
-0.33705 0.0245 0.0546241 0 100 0
-0.0303415 0.0245 0.078561 0 100 0
-0.212039 0.0245 0.0453843 0 100 0
-0.0702454 0.0245 0.0743756 0 100 0
-0.154772 0.0245 0.0663702 0 100 0
-0.0297263 0.0245 0.0702708 0 100 0
-0.310204 0.0245 0.038198 0 100 0
-0.224496 0.0245 0.0408562 0 100 0
-0.342867 0.0245 0.0592674 0 100 0
-0.249709 0.0245 0.0389326 0 100 0
-0.151253 0.0245 0.0483006 0 100 0
-0.245273 0.0245 0.0593536 0 100 0
-0.17736 0.0245 0.0463641 0 100 0
-0.237939 0.0245 0.0753896 0 100 0
-0.33113 0.0245 0.0586095 0 100 0
-0.136525 0.0245 0.0460279 0 100 0
-0.361675 0.0245 0.0388306 0 100 0
-0.0938791 0.0245 0.0489001 0 100 0
-0.288454 0.0245 0.0327777 0 100 0
-0.151317 0.0245 0.0546517 0 100 0
-0.211753 0.0245 0.0431684 0 100 0
-0.20742 0.0245 0.0771374 0 100 0
-0.109343 0.0245 0.0337235 0 100 0
-0.180682 0.0245 0.066272 0 100 0
-0.128776 0.0245 0.0696132 0 100 0
-0.234589 0.0245 0.0575768 0 100 0
-0.371961 0.0245 0.0451232 0 100 0
-0.130876 0.0245 0.0348887 0 100 0
-0.0627718 0.0245 0.0502499 0 100 0
-0.269574 0.0245 0.0364284 0 100 0
-0.327287 0.0245 0.0679539 0 100 0
-0.0732948 0.0245 0.0526514 0 100 0
-0.0829601 0.0245 0.0733339 0 100 0
-0.26264 -0.0245 0.0537251 0 100 0
-0.0615434 -0.0245 0.037692 0 100 0
-0.216995 -0.0245 0.0673365 0 100 0
-0.289319 -0.0245 0.0363288 0 100 0
-0.30837 -0.0245 0.0310654 0 100 0
-0.25183 -0.0245 0.0474448 0 100 0
-0.291814 -0.0245 0.0444213 0 100 0
-0.297345 -0.0245 0.0708117 255 0 0
-0.0516197 -0.0245 0.0731395 0 100 0
-0.33989 -0.0245 0.0307322 0 100 0
-0.160701 -0.0245 0.0311956 0 100 0
-0.303252 -0.0245 0.0748994 255 0 0
-0.0294278 -0.0245 0.075635 0 100 0
-0.176979 -0.0245 0.0588857 0 100 0
-0.304608 -0.0245 0.071916 255 0 0
-0.327634 -0.0245 0.0737015 0 100 0
-0.29356 -0.0245 0.0508262 0 100 0
-0.289939 -0.0245 0.0780719 0 100 0
-0.173438 -0.0245 0.0561797 0 100 0
-0.261322 -0.0245 0.0570304 0 100 0
-0.148421 -0.0245 0.0790097 0 100 0
-0.114631 -0.0245 0.0602365 0 100 0
-0.0801002 -0.0245 0.0735483 0 100 0
-0.10608 -0.0245 0.0585642 0 100 0
-0.368917 -0.0245 0.036617 0 100 0
-0.193093 -0.0245 0.0429435 0 100 0
-0.0743257 -0.0245 0.0735057 0 100 0
-0.268844 -0.0245 0.0318069 0 100 0
-0.25558 -0.0245 0.0768179 0 100 0
-0.162497 -0.0245 0.0692192 0 100 0
-0.0821647 -0.0245 0.0644135 0 100 0
-0.0428878 -0.0245 0.0368503 0 100 0
-0.169863 -0.0245 0.0371053 0 100 0
-0.368769 -0.0245 0.0542776 0 100 0
-0.160121 -0.0245 0.0483235 0 100 0
-0.263644 -0.0245 0.0346338 0 100 0
-0.146022 -0.0245 0.0758019 0 100 0
-0.177028 -0.0245 0.0767181 0 100 0
-0.154601 -0.0245 0.0362815 0 100 0
-0.0789391 -0.0245 0.0760551 0 100 0
-0.290488 -0.0245 0.0620534 0 100 0
-0.0830926 -0.0245 0.0679729 0 100 0
-0.143213 -0.0245 0.0367995 0 100 0
-0.112374 -0.0245 0.0755691 0 100 0
-0.0267193 -0.0245 0.0567516 0 100 0
-0.301379 -0.0245 0.0783929 255 0 0
-0.0895748 -0.0245 0.0526466 0 100 0
-0.323014 -0.0245 0.0647185 0 100 0
-0.170478 -0.0245 0.054126 0 100 0
-0.0818571 -0.0245 0.0306785 0 100 0
-0.251831 -0.0245 0.0716316 0 100 0
-0.275842 -0.0245 0.041483 0 100 0
-0.197533 -0.0245 0.0502322 0 100 0
-0.122812 -0.0245 0.0441293 0 100 0
-0.0726353 -0.0245 0.0345915 0 100 0
-0.184706 -0.0245 0.0599372 0 100 0
-0.186193 -0.0245 0.0763683 0 100 0
-0.049547 -0.0245 0.0596302 0 100 0
-0.114148 -0.0245 0.0771485 0 100 0
-0.226491 -0.0245 0.0521541 0 100 0
-0.266342 -0.0245 0.0404148 0 100 0
-0.239836 -0.0245 0.0424472 0 100 0
-0.313996 -0.0245 0.0496431 0 100 0
-0.275551 -0.0245 0.0342122 0 100 0
-0.195769 -0.0245 0.034571 0 100 0
-0.352812 -0.0245 0.0458706 0 100 0
-0.250578 -0.0245 0.0676874 0 100 0
-0.0491233 -0.0245 0.040661 0 100 0
-0.034612 -0.0245 0.0628449 0 100 0
-0.361891 -0.0245 0.056974 0 100 0
-0.102783 -0.0245 0.0725989 0 100 0
-0.230959 -0.0245 0.0493125 0 100 0
-0.125836 -0.0245 0.0603656 0 100 0
-0.199062 -0.0245 0.0305911 0 100 0
-0.292403 -0.0245 0.0413234 0 100 0
-0.187757 -0.0245 0.05256 0 100 0
-0.337076 -0.0245 0.0758919 0 100 0
-0.358111 -0.0245 0.0546662 0 100 0
-0.147691 -0.0245 0.0357303 0 100 0
-0.288063 -0.0245 0.0671002 0 100 0
-0.209534 -0.0245 0.070355 0 100 0
-0.237915 -0.0245 0.049637 0 100 0
-0.331282 -0.0245 0.0725505 0 100 0
-0.275751 -0.0245 0.0428956 0 100 0
-0.253724 -0.0245 0.0536722 0 100 0
-0.268491 -0.0245 0.0522157 0 100 0
-0.216613 -0.0245 0.0386097 0 100 0
-0.181021 -0.0245 0.0691292 0 100 0
-0.128397 -0.0245 0.0341615 0 100 0
-0.233204 -0.0245 0.0720195 0 100 0
-0.0834169 -0.0245 0.0426527 0 100 0
-0.17043 -0.0245 0.0343236 0 100 0
-0.148735 -0.0245 0.0490795 0 100 0
-0.267499 -0.0245 0.0568927 0 100 0
-0.0389738 -0.0245 0.0315478 0 100 0
-0.142852 -0.0245 0.0651598 0 100 0
-0.0966023 -0.0245 0.0782249 0 100 0
-0.188298 -0.0245 0.0359797 0 100 0
-0.104687 -0.0245 0.0413938 0 100 0
-0.107937 -0.0245 0.037264 0 100 0
-0.177576 -0.0245 0.0728733 0 100 0
-0.368432 -0.0245 0.0597558 0 100 0
-0.070703 -0.0245 0.0576923 0 100 0
-0.0968083 -0.0245 0.0620954 0 100 0
-0.0749057 -0.0245 0.0474348 0 100 0
-0.12498 -0.0245 0.0382869 0 100 0
-0.0295568 -0.0245 0.0381249 0 100 0
-0.230829 -0.0245 0.0330792 0 100 0
-0.235379 -0.0245 0.0375186 0 100 0
-0.222945 -0.0245 0.0521446 0 100 0
-0.072057 -0.0245 0.0663914 0 100 0
-0.282901 -0.0245 0.0778675 0 100 0
-0.344388 -0.0245 0.0632593 0 100 0
-0.0482217 -0.0245 0.0695819 0 100 0
-0.0873417 -0.0245 0.0728774 0 100 0
-0.13162 -0.0245 0.0342512 0 100 0
-0.190511 -0.0245 0.0600397 0 100 0
-0.29089 -0.0245 0.0600661 0 100 0
-0.242233 -0.0245 0.0659358 0 100 0
-0.273252 -0.0245 0.0432977 0 100 0
-0.291753 -0.0245 0.0658534 0 100 0
-0.260151 -0.0245 0.044908 0 100 0
-0.292561 -0.0245 0.049344 0 100 0
-0.200422 -0.0245 0.0456573 0 100 0
-0.16873 -0.0245 0.0346921 0 100 0
-0.288205 -0.0245 0.0661325 0 100 0
-0.300109 -0.0245 0.0583852 255 0 0
-0.227308 -0.0245 0.0632128 0 100 0
-0.0468401 -0.0245 0.0511911 0 100 0
-0.269955 -0.0245 0.0550642 0 100 0
-0.0665071 -0.0245 0.0652665 0 100 0
-0.135284 -0.0245 0.0766241 0 100 0
-0.117323 -0.0245 0.0703019 0 100 0
-0.157012 -0.0245 0.0473511 0 100 0
-0.0498522 -0.0245 0.0617722 0 100 0
-0.340161 -0.0245 0.0427391 0 100 0
-0.255638 -0.0245 0.0421351 0 100 0
-0.0826542 -0.0245 0.0696737 0 100 0
-0.313414 -0.0245 0.0349662 0 100 0
-0.213397 -0.0245 0.0655706 0 100 0
-0.0936282 -0.0245 0.0476925 0 100 0
-0.183997 -0.0245 0.0580579 0 100 0
-0.209104 -0.0245 0.0666568 0 100 0
-0.371453 -0.0245 0.0674163 0 100 0
-0.117247 -0.0245 0.0345702 0 100 0
-0.286329 -0.0245 0.0313244 0 100 0
-0.281319 -0.0245 0.0651039 0 100 0
-0.233127 -0.0245 0.047789 0 100 0
-0.18324 -0.0245 0.0518329 0 100 0
-0.224607 -0.0245 0.0767221 0 100 0
-0.179293 -0.0245 0.0406446 0 100 0
-0.247195 -0.0245 0.0504781 0 100 0
-0.0362751 -0.0245 0.035355 0 100 0
-0.0957661 -0.0245 0.0530321 0 100 0
-0.24103 -0.0245 0.0667583 0 100 0
-0.0800905 -0.0245 0.0357078 0 100 0
-0.334 -0.0245 0.0490953 0 100 0
-0.333309 -0.0245 0.0313593 0 100 0
-0.204299 -0.0245 0.0360458 0 100 0
-0.0335627 -0.0245 0.0608226 0 100 0
-0.360778 -0.0245 0.077432 0 100 0
-0.0314276 -0.0245 0.0324732 0 100 0
-0.213616 -0.0245 0.0630126 0 100 0
-0.108277 -0.0245 0.0467429 0 100 0
-0.0422207 -0.0245 0.0584691 0 100 0
-0.082217 -0.0245 0.0394814 0 100 0
-0.307253 -0.0245 0.0351792 0 100 0
-0.122891 -0.0245 0.0657985 0 100 0
-0.207041 -0.0245 0.0642566 0 100 0
-0.372398 -0.0245 0.0553316 0 100 0
-0.348679 -0.0245 0.0647121 0 100 0
