ply
format ascii 1.0
comment Created by Open3D
element vertex 1315
property double x
property double y
property double z
property uchar red
property uchar green
property uchar blue
end_header
0.00400925 -0.0441515 0.095 255 128 0
-0.0260153 -0.024561 0.095 255 128 0
0.0985687 -0.101816 0.095 255 128 0
-0.0766043 0.131361 0.095 255 128 0
0.00303861 -0.135465 0.095 255 128 0
0.0383859 0.048261 0.095 255 128 0
0.0690923 -0.138779 0.095 255 128 0
-0.00116726 -0.0689605 0.095 255 128 0
0.0892677 -0.00940754 0.095 255 128 0
0.0367881 0.067605 0.095 255 128 0
0.0492572 -0.116006 0.095 255 128 0
-0.0864956 -0.111455 0.095 255 128 0
0.095624 0.0458756 0.095 255 128 0
-0.00213332 -0.120789 0.095 255 128 0
0.00801679 -0.00459368 0.095 255 128 0
0.0222456 0.0814322 0.095 255 128 0
0.100583 0.0596994 0.095 255 128 0
-0.115164 -0.0332412 0.095 255 128 0
0.0346464 -0.0649387 0.095 255 128 0
0.0184973 0.0154213 0.095 255 128 0
-0.0124328 0.0639995 0.095 255 128 0
-0.0199883 -0.148442 0.095 255 128 0
0.0541871 0.0597651 0.095 255 128 0
-0.055444 0.0670978 0.095 255 128 0
0.0425135 0.0468202 0.095 255 128 0
-0.102547 -0.0339146 0.095 255 128 0
-0.0966309 0.0691352 0.095 255 128 0
-0.123765 -0.127176 0.095 255 128 0
-0.0429327 0.122736 0.095 255 128 0
0.116986 0.0512252 0.095 255 128 0
0.110725 -0.0761161 0.095 255 128 0
-0.0811379 0.104519 0.095 255 128 0
0.0654645 -0.0782209 0.095 255 128 0
0.056617 -0.0570482 0.095 255 128 0
0.0799358 -0.0546477 0.095 255 128 0
-0.0950442 -0.0035595 0.095 255 128 0
0.000372884 0.0651682 0.095 255 128 0
-0.111635 -0.0999924 0.095 255 128 0
0.113578 -0.0109016 0.095 255 128 0
0.0483657 -0.131324 0.095 255 128 0
0.0689207 0.0468966 0.095 255 128 0
0.0105749 0.0581669 0.095 255 128 0
0.00352332 -0.113793 0.095 255 128 0
-0.0118483 0.0181091 0.095 255 128 0
-0.0190546 0.0380947 0.095 255 128 0
0.0729497 -0.0770381 0.095 255 128 0
0.0902654 0.0333736 0.095 255 128 0
-0.0131572 -0.124645 0.095 255 128 0
0.0780596 0.087602 0.095 255 128 0
0.0975332 -0.120708 0.095 255 128 0
-0.055498 -0.077077 0.095 255 128 0
0.0779267 0.141125 0.095 255 128 0
-0.0219133 0.0803015 0.095 255 128 0
0.0923135 -0.0557176 0.095 255 128 0
0.0352105 -0.0930683 0.095 255 128 0
-0.0749676 -0.0863193 0.095 255 128 0
0.0181532 0.139663 0.095 255 128 0
0.00325716 0.0378515 0.095 255 128 0
0.000308072 0.0282553 0.095 255 128 0
0.0349593 0.043001 0.095 255 128 0
-0.124517 -0.141878 0.095 255 128 0
-0.0698754 -0.037712 0.095 255 128 0
0.00949534 -0.0120381 0.095 255 128 0
0.1211 -0.0681776 0.095 255 128 0
-0.120556 -0.024496 0.095 255 128 0
-0.0207734 0.0156159 0.095 255 128 0
0.115475 0.0302643 0.095 255 128 0
0.0904027 -0.10066 0.095 255 128 0
-0.0777628 -0.112692 0.095 255 128 0
0.102847 0.0413329 0.095 255 128 0
0.0856496 -0.0110716 0.095 255 128 0
0.117112 -0.0353774 0.095 255 128 0
-0.0884167 0.140762 0.095 255 128 0
0.0401907 0.13463 0.095 255 128 0
-0.0022546 0.0769426 0.095 255 128 0
-0.0538737 -0.018483 0.095 255 128 0
-0.062657 -0.072932 0.095 255 128 0
0.0803165 0.0121792 0.095 255 128 0
-0.112562 0.0194056 0.095 255 128 0
0.119917 0.0484302 0.095 255 128 0
-0.0795179 -0.117242 0.095 255 128 0
0.00473665 -0.149904 0.095 255 128 0
0.0242059 -0.138113 0.095 255 128 0
-0.0185518 0.047819 0.095 255 128 0
0.0395193 -0.0796609 0.095 255 128 0
-0.0342246 -0.0264938 0.095 255 128 0
0.0707577 -0.00917194 0.095 255 128 0
0.0948808 0.0137038 0.095 255 128 0
0.0718286 -0.0324505 0.095 255 128 0
-0.0608241 -0.115236 0.095 255 128 0
-0.122212 0.0709148 0.095 255 128 0
0.0808613 0.106916 0.095 255 128 0
0.0968664 0.145553 0.095 255 128 0
0.0177764 0.0996305 0.095 255 128 0
-0.103527 0.0230301 0.095 255 128 0
-0.0703345 -0.0675861 0.095 255 128 0
-0.0386784 0.0696894 0.095 255 128 0
0.116008 -0.0372473 0.095 255 128 0
0.0589494 0.123185 0.095 255 128 0
-0.000259777 -0.145627 0.095 255 128 0
-0.00629241 -0.0907365 0.095 255 128 0
0.0848251 -0.117549 0.095 255 128 0
0.0348121 -0.00591412 0.095 255 128 0
-0.123691 -0.0560611 0.095 255 128 0
0.00794767 -0.0857678 0.095 255 128 0
-0.0886737 0.0490958 0.095 255 128 0
0.0817267 -0.0500581 0.095 255 128 0
0.0320986 0.122279 0.095 255 128 0
-0.0208056 -0.119232 0.095 255 128 0
0.0402324 -0.0751812 0.095 255 128 0
-0.0768041 -0.136442 0.095 255 128 0
-0.0467023 -0.0990398 0.095 255 128 0
-0.00548278 0.076635 0.095 255 128 0
0.0216962 -0.0305718 0.095 255 128 0
-0.0703323 -0.0943188 0.095 255 128 0
0.0941368 0.147054 0.095 255 128 0
0.0205799 0.100024 0.095 255 128 0
-0.0853555 0.143732 0.095 255 128 0
-0.122465 -0.0834184 0.095 255 128 0
0.0104205 0.0293217 0.095 255 128 0
0.0474456 0.135104 0.095 255 128 0
0.0646761 0.145265 0.095 255 128 0
-0.0482538 -0.00820553 0.095 255 128 0
-0.0658677 -0.142401 0.095 255 128 0
0.112696 -0.133431 0.095 255 128 0
0.12186 -0.0720048 0.095 255 128 0
0.0587085 -0.0982778 0.095 255 128 0
-0.0236199 0.0675097 0.095 255 128 0
-0.0893319 -0.0188429 0.095 255 128 0
-0.109796 0.0976329 0.095 255 128 0
0.0135506 0.0044267 0.095 255 128 0
-0.0558242 0.079787 0.095 255 128 0
0.0529694 -0.0563211 0.095 255 128 0
0.0213983 0.0318028 0.095 255 128 0
0.0727813 -0.0454561 0.095 255 128 0
-0.0376074 0.0416613 0.095 255 128 0
-0.104009 -0.125465 0.095 255 128 0
0.0783424 0.037598 0.095 255 128 0
0.0143718 -0.103828 0.095 255 128 0
0.0588681 0.148773 0.095 255 128 0
0.0959177 0.0369377 0.095 255 128 0
-0.0902742 0.0311349 0.095 255 128 0
0.0673529 0.0782832 0.095 255 128 0
-0.106883 0.0748291 0.095 255 128 0
-0.113001 -0.0586233 0.095 255 128 0
-0.0414239 -0.119751 0.095 255 128 0
-0.0311375 0.0377704 0.095 255 128 0
-0.123899 -0.0185036 0.095 255 128 0
0.123247 0.0637027 0.095 255 128 0
0.045483 0.127995 0.095 255 128 0
-0.0559745 0.121551 0.095 255 128 0
0.0489745 0.127403 0.095 255 128 0
-0.0328483 0.111814 0.095 255 128 0
-0.000590944 -0.10162 0.095 255 128 0
0.0371493 -0.0383754 0.095 255 128 0
-0.0827421 -0.0724085 0.095 255 128 0
0.00841035 -0.112381 0.095 255 128 0
-0.083261 -0.14872 0.095 255 128 0
0.0615423 -0.0228066 0.095 255 128 0
-0.00167458 -0.0732792 0.095 255 128 0
-0.112374 -0.0624639 0.095 255 128 0
-0.0152229 -1.45417e-05 0.095 255 128 0
0.10131 0.126138 0.095 255 128 0
0.0214485 -0.0925468 0.095 255 128 0
0.0473414 0.0151738 0.095 255 128 0
-0.114795 -0.0258973 0.095 255 128 0
-0.081546 0.135232 0.095 255 128 0
0.0855817 -0.0477481 0.095 255 128 0
-0.084983 -0.0841808 0.095 255 128 0
0.035839 0.0219189 0.095 255 128 0
-0.0091299 -0.018408 0.095 255 128 0
-0.0096329 0.0989102 0.095 255 128 0
-0.0139549 0.0176403 0.095 255 128 0
-0.0244987 0.00504668 0.095 255 128 0
0.00635014 0.0628416 0.095 255 128 0
0.0876376 0.0998489 0.095 255 128 0
-0.0394306 -0.091677 0.095 255 128 0
-0.0655136 0.0528214 0.095 255 128 0
0.0796315 0.00990921 0.095 255 128 0
-0.0892179 0.0350361 0.095 255 128 0
-0.0463497 -0.00121173 0.095 255 128 0
0.0231193 0.0885827 0.095 255 128 0
0.0933345 0.0301012 0.095 255 128 0
-0.0017164 0.0669672 0.095 255 128 0
-0.0963165 -0.1427 0.095 255 128 0
-0.0345878 0.0799681 0.095 255 128 0
0.0943868 0.0445499 0.095 255 128 0
-0.0773167 0.120284 0.095 255 128 0
0.0702434 0.101581 0.095 255 128 0
0.0941981 -0.140754 0.095 255 128 0
-0.122348 -0.149437 0.095 255 128 0
0.116486 -0.0480143 0.095 255 128 0
-0.0872045 -0.0250854 0.095 255 128 0
-0.0860016 -0.0549382 0.095 255 128 0
0.0328485 -0.133094 0.095 255 128 0
0.0900634 -0.0133231 0.095 255 128 0
-0.105932 0.10191 0.095 255 128 0
0.0625216 0.0404569 0.095 255 128 0
0.0929758 -0.0476836 0.095 255 128 0
-0.0470039 0.0969013 0.095 255 128 0
-0.0409137 -0.0226075 0.095 255 128 0
-0.0727901 -0.0205825 0.095 255 128 0
-0.00359133 -0.137333 0.095 255 128 0
0.12018 -0.0887391 0.095 255 128 0
0.0474558 -0.012059 0.095 255 128 0
-0.0835251 0.0602746 0.095 255 128 0
-0.115191 0.0275667 0.095 255 128 0
0.00745504 -0.0393223 0.095 255 128 0
-0.0449319 -0.0973736 0.095 255 128 0
0.000674031 0.0424722 0.095 255 128 0
0.0458863 0.0938865 0.095 255 128 0
0.0614399 -0.125313 0.095 255 128 0
0.0911697 0.0802553 0.095 255 128 0
-0.0909124 -0.0668583 0.095 255 128 0
0.119703 0.107826 0.095 255 128 0
-0.0439989 -0.145246 0.095 255 128 0
-0.0713326 0.120474 0.095 255 128 0
-0.00740328 0.0265866 0.095 255 128 0
-0.0190471 -0.144708 0.095 255 128 0
-0.0210984 -0.0281288 0.095 255 128 0
0.0142251 0.129656 0.095 255 128 0
0.0450571 -0.022899 0.095 255 128 0
0.0973457 -0.0450769 0.095 255 128 0
0.0901201 -0.113603 0.095 255 128 0
0.0704274 -0.0970737 0.095 255 128 0
-0.096166 -0.148077 0.095 255 128 0
0.0190745 0.0274692 0.095 255 128 0
-0.0222225 0.00704008 0.095 255 128 0
0.0225269 0.0136654 0.095 255 128 0
0.108941 0.101931 0.095 255 128 0
0.000204001 -0.0330168 0.095 255 128 0
-0.062256 -0.0737765 0.095 255 128 0
0.0530108 0.109667 0.095 255 128 0
-0.0890432 0.098314 0.095 255 128 0
0.0446417 0.0999776 0.095 255 128 0
-0.010252 -0.138386 0.095 255 128 0
0.108888 -0.0824497 0.095 255 128 0
-0.0795821 -0.0296353 0.095 255 128 0
0.118326 -0.139897 0.095 255 128 0
-0.09291 0.0425691 0.095 255 128 0
0.00936772 0.129351 0.095 255 128 0
-0.0436915 0.117873 0.095 255 128 0
-0.122352 -0.000711734 0.095 255 128 0
0.0184762 -0.147303 0.095 255 128 0
-0.0412008 0.11246 0.095 255 128 0
-0.0538601 -0.129997 0.095 255 128 0
-0.0879449 -0.0803176 0.095 255 128 0
-0.115968 -0.0488721 0.095 255 128 0
-0.0156878 -0.142581 0.095 255 128 0
-0.122029 0.138581 0.095 255 128 0
0.10813 0.141793 0.095 255 128 0
0.0712295 0.0964351 0.095 255 128 0
0.0439914 0.148274 0.095 255 128 0
-0.0783502 -0.0932549 0.095 255 128 0
0.022247 -0.0495955 0.095 255 128 0
-0.0346284 0.136501 0.095 255 128 0
0.0887631 0.0473677 0.095 255 128 0
-0.0081629 -0.00303894 0.095 255 128 0
0.0204405 0.114458 0.095 255 128 0
0.0572923 -0.0784951 0.095 255 128 0
0.122416 -0.0610957 0.095 255 128 0
-0.104971 -0.0984728 0.095 255 128 0
-0.0781398 -0.00222664 0.095 255 128 0
-0.0154437 -0.108158 0.095 255 128 0
-0.0669728 -0.0960682 0.095 255 128 0
0.0921625 -0.0603229 0.095 255 128 0
-0.0975832 -0.139049 0.095 255 128 0
-0.00585328 0.146649 0.095 255 128 0
0.0155716 -0.118899 0.105 255 128 0
0.0156446 -0.07498 0.105 255 128 0
-0.0673391 0.11116 0.105 255 128 0
-0.121009 0.0724782 0.105 255 128 0
-0.0846079 -0.0919433 0.105 255 128 0
0.0197222 -0.0127543 0.105 255 128 0
-0.0441315 0.0973978 0.105 255 128 0
-0.0507083 -0.0362103 0.105 255 128 0
-0.00805131 -0.0872938 0.105 255 128 0
-0.113873 -0.125494 0.105 255 128 0
-0.0565622 0.136095 0.105 255 128 0
-0.0337848 0.119513 0.105 255 128 0
0.0997745 -0.0561892 0.105 255 128 0
-0.00650616 -0.0705593 0.105 255 128 0
0.00858881 0.147358 0.105 255 128 0
-0.0405083 -0.0256824 0.105 255 128 0
0.114176 -0.120178 0.105 255 128 0
0.103634 -0.135687 0.105 255 128 0
-0.0555254 0.132869 0.105 255 128 0
-0.0819195 -0.0204124 0.105 255 128 0
0.123894 0.0893429 0.105 255 128 0
0.108336 -0.0288042 0.105 255 128 0
-0.0340955 -0.0828987 0.105 255 128 0
-0.079611 0.106685 0.105 255 128 0
-0.0161099 0.0474261 0.105 255 128 0
-0.0778485 -0.0537334 0.105 255 128 0
-0.0979119 0.0738811 0.105 255 128 0
0.00499624 0.094288 0.105 255 128 0
-0.0399844 0.124131 0.105 255 128 0
0.0309334 0.00102043 0.105 255 128 0
-0.12018 0.0581498 0.105 255 128 0
0.0595249 -0.118233 0.105 255 128 0
-0.109462 0.0378402 0.105 255 128 0
-0.110474 0.0315387 0.105 255 128 0
0.0834398 0.00240851 0.105 255 128 0
-0.0943641 0.0222647 0.105 255 128 0
0.113472 -0.13126 0.105 255 128 0
0.053694 -0.055675 0.105 255 128 0
0.0625055 -0.0456722 0.105 255 128 0
0.0905793 0.0219279 0.105 255 128 0
0.0468651 0.0170204 0.105 255 128 0
-0.122865 0.0920913 0.105 255 128 0
0.112756 0.0861618 0.105 255 128 0
-0.0686334 -0.0414653 0.105 255 128 0
0.0347808 -0.00164043 0.105 255 128 0
0.0727645 -0.095881 0.105 255 128 0
-0.0599621 -0.112275 0.105 255 128 0
0.103177 -0.0937251 0.105 255 128 0
-0.010178 0.0557739 0.105 255 128 0
-0.0948259 -0.0504497 0.105 255 128 0
0.0559203 -0.0175125 0.105 255 128 0
0.0651934 -0.0175605 0.105 255 128 0
0.122131 0.0214958 0.105 255 128 0
0.0613152 -0.000356768 0.105 255 128 0
-0.0129728 0.0807475 0.105 255 128 0
-0.0882758 -0.0759499 0.105 255 128 0
0.0923678 0.139001 0.105 255 128 0
-0.0676819 0.0168309 0.105 255 128 0
-0.041006 0.115675 0.105 255 128 0
0.0385252 0.0604001 0.105 255 128 0
0.119073 0.144077 0.105 255 128 0
0.0295628 0.134225 0.105 255 128 0
0.0335089 0.0122099 0.105 255 128 0
-0.038723 -0.124571 0.105 255 128 0
0.0094775 -0.102396 0.105 255 128 0
-0.123009 -0.134646 0.105 255 128 0
-0.0648712 0.0477197 0.105 255 128 0
-0.0296072 -0.0243564 0.105 255 128 0
0.0740206 -0.111133 0.105 255 128 0
0.0830477 -0.0248859 0.105 255 128 0
-0.0133213 -0.074268 0.105 255 128 0
-0.0813509 0.0686279 0.105 255 128 0
0.0919317 0.0597217 0.105 255 128 0
-0.0943557 0.0963895 0.105 255 128 0
0.0491216 -0.023392 0.105 255 128 0
-0.00293151 0.14352 0.105 255 128 0
0.118093 0.00344233 0.105 255 128 0
-0.111845 0.0253792 0.105 255 128 0
0.0855414 -0.0368908 0.105 255 128 0
0.0685287 0.0946181 0.105 255 128 0
-0.0358932 -0.136398 0.105 255 128 0
0.104313 -0.100834 0.105 255 128 0
-0.0489216 0.102546 0.105 255 128 0
-0.0860488 -0.0310006 0.105 255 128 0
-0.0417498 -0.0620144 0.105 255 128 0
-0.104275 -0.074605 0.105 255 128 0
-0.0274752 0.0255888 0.105 255 128 0
-0.040217 0.103808 0.105 255 128 0
-0.0991828 0.118108 0.105 255 128 0
0.0957485 0.0899242 0.105 255 128 0
0.0124453 -0.0541038 0.105 255 128 0
-0.0863289 -0.117728 0.105 255 128 0
0.0698644 -0.10555 0.105 255 128 0
-0.105168 0.0915377 0.105 255 128 0
0.0523628 -0.0790251 0.105 255 128 0
-0.0631182 0.108354 0.105 255 128 0
0.00702374 -0.0817771 0.105 255 128 0
0.0472138 0.143705 0.105 255 128 0
-0.0442059 0.122855 0.105 255 128 0
-0.118858 0.148427 0.105 255 128 0
0.0548209 0.0864058 0.105 255 128 0
0.0426455 -0.115126 0.105 255 128 0
-0.000501693 -0.0293225 0.105 255 128 0
-0.041419 -0.127306 0.105 255 128 0
-0.0349089 -0.0701753 0.105 255 128 0
-0.0835962 -0.0715107 0.105 255 128 0
0.0213286 0.035279 0.105 255 128 0
-0.050067 -0.0874132 0.105 255 128 0
-0.0728126 0.115868 0.105 255 128 0
0.0578877 0.0967128 0.105 255 128 0
-0.00489718 0.127005 0.105 255 128 0
-0.0896265 -0.0855984 0.105 255 128 0
-0.0800024 0.0469581 0.105 255 128 0
0.0572762 0.137645 0.105 255 128 0
-0.0340202 -0.121882 0.105 255 128 0
0.0456178 -0.0873811 0.105 255 128 0
-0.107255 0.020837 0.105 255 128 0
-0.114169 0.103575 0.105 255 128 0
0.0657569 0.0232387 0.105 255 128 0
-0.0683682 0.0138052 0.105 255 128 0
0.0285259 0.0181176 0.105 255 128 0
-0.0664629 -0.0895456 0.105 255 128 0
-0.0594768 0.0786113 0.105 255 128 0
0.0858905 -0.129238 0.105 255 128 0
-0.0428425 -0.131848 0.105 255 128 0
-0.0268517 -0.0340181 0.105 255 128 0
0.0187522 0.0745768 0.105 255 128 0
-0.0106658 0.0620095 0.105 255 128 0
-0.00882587 -0.0124697 0.105 255 128 0
-0.0901825 0.14658 0.105 255 128 0
0.0170712 0.0601041 0.105 255 128 0
-0.0877187 0.080994 0.105 255 128 0
0.00646577 0.0248345 0.105 255 128 0
0.0616325 -0.0780503 0.105 255 128 0
-0.101132 -0.121935 0.105 255 128 0
-0.102922 -0.124381 0.105 255 128 0
-0.034718 -0.0980104 0.105 255 128 0
0.0758252 0.0917823 0.105 255 128 0
-0.0719495 0.0207919 0.105 255 128 0
-0.108305 0.0439095 0.105 255 128 0
0.00691123 -0.147283 0.105 255 128 0
-0.109671 -0.0989933 0.105 255 128 0
0.0467404 -0.131794 0.105 255 128 0
-0.0721135 -0.0666185 0.105 255 128 0
0.0712534 -0.00887903 0.105 255 128 0
0.116139 -0.0785637 0.105 255 128 0
-0.0366414 -0.0639028 0.105 255 128 0
0.0337401 0.0946567 0.105 255 128 0
0.0687127 -0.121627 0.105 255 128 0
0.0342433 -0.0255256 0.105 255 128 0
-0.0939115 -0.0411708 0.105 255 128 0
0.0474256 -0.139783 0.105 255 128 0
0.041672 0.0309589 0.105 255 128 0
-0.104759 -0.00191825 0.105 255 128 0
-0.0300776 -0.0330692 0.105 255 128 0
-0.104402 0.0650185 0.105 255 128 0
0.0521401 0.037014 0.105 255 128 0
-0.0153828 -0.133116 0.105 255 128 0
-0.0330164 -0.00159926 0.105 255 128 0
0.0446883 -0.133172 0.105 255 128 0
-0.0167159 -0.0473342 0.105 255 128 0
-0.114252 0.0020158 0.105 255 128 0
0.0296176 0.105284 0.105 255 128 0
-0.0271934 0.00674992 0.105 255 128 0
-0.0360584 -0.0693565 0.105 255 128 0
-0.00143101 -0.0151882 0.105 255 128 0
0.0103518 -0.0759812 0.105 255 128 0
0.0544365 0.0224458 0.105 255 128 0
0.100862 0.00404789 0.105 255 128 0
0.104461 -0.146977 0.105 255 128 0
0.0842678 -0.0100239 0.105 255 128 0
0.0892042 -0.144613 0.105 255 128 0
0.0203776 0.0526175 0.105 255 128 0
0.0968092 -0.033917 0.105 255 128 0
-0.0412935 0.0821831 0.105 255 128 0
-0.108197 0.100831 0.105 255 128 0
0.0831054 -0.036933 0.105 255 128 0
-0.0399739 -0.124613 0.105 255 128 0
0.103543 -0.0656099 0.105 255 128 0
0.114537 -0.124121 0.105 255 128 0
-0.101994 0.0032092 0.105 255 128 0
-0.0386512 0.0234809 0.105 255 128 0
-0.0524712 0.0142182 0.105 255 128 0
0.0790408 -0.0778489 0.105 255 128 0
0.00662986 -0.0484123 0.105 255 128 0
0.00072172 -0.0439383 0.105 255 128 0
0.0507233 -0.0320372 0.105 255 128 0
-0.0836986 -0.147658 0.105 255 128 0
-0.100946 0.125519 0.105 255 128 0
-0.0904588 -0.114698 0.105 255 128 0
0.0755973 0.0616045 0.105 255 128 0
-0.0201725 -0.0683762 0.105 255 128 0
0.0702546 0.124748 0.105 255 128 0
-0.0888082 0.100543 0.105 255 128 0
0.0970892 0.125663 0.105 255 128 0
0.0623954 0.106994 0.105 255 128 0
-0.0678192 -0.131136 0.105 255 128 0
-0.0653843 0.140385 0.105 255 128 0
0.0423514 -0.021596 0.105 255 128 0
-0.0614878 -0.110572 0.105 255 128 0
-0.0954087 -0.12278 0.105 255 128 0
-0.0374761 -0.0854705 0.105 255 128 0
0.0382091 0.0848944 0.105 255 128 0
-0.0628995 -0.0295934 0.105 255 128 0
0.0231997 -0.099127 0.105 255 128 0
0.0968074 -0.0240788 0.105 255 128 0
-0.0309211 0.0248705 0.105 255 128 0
0.106057 -0.052959 0.105 255 128 0
-0.122933 -0.128051 0.105 255 128 0
-0.0111116 -0.0767342 0.105 255 128 0
0.000650264 0.122701 0.105 255 128 0
0.0368117 -0.106143 0.105 255 128 0
0.0139494 0.130129 0.105 255 128 0
0.0674908 0.117869 0.105 255 128 0
-0.0528081 0.0110626 0.105 255 128 0
0.0544219 -0.0341507 0.105 255 128 0
-0.118486 -0.0990731 0.105 255 128 0
-8.96277e-05 -0.00542188 0.105 255 128 0
0.087783 -0.0901987 0.105 255 128 0
-0.0645951 0.0285048 0.105 255 128 0
0.119647 -0.105889 0.105 255 128 0
0.0273081 0.138891 0.105 255 128 0
0.0238836 -0.0104799 0.105 255 128 0
-0.0901045 0.066266 0.105 255 128 0
0.0212295 -0.00864049 0.105 255 128 0
0.060016 0.138227 0.105 255 128 0
-0.0200935 0.0436563 0.105 255 128 0
0.12323 0.0601743 0.105 255 128 0
0.0585032 0.0216299 0.105 255 128 0
-0.0622712 0.106584 0.105 255 128 0
-0.0838944 -0.114392 0.105 255 128 0
0.114669 0.1119 0.105 255 128 0
-0.0437913 0.0416467 0.105 255 128 0
0.0937554 -0.14575 0.105 255 128 0
0.109928 0.14723 0.105 255 128 0
-0.0677439 0.0947755 0.105 255 128 0
-0.0966725 0.0627484 0.105 255 128 0
-0.101142 0.0853365 0.105 255 128 0
-0.00143798 0.135014 0.105 255 128 0
0.0233315 0.105432 0.105 255 128 0
-0.0488269 0.00022719 0.105 255 128 0
0.0946007 -0.0703764 0.105 255 128 0
-0.00891804 -0.115143 0.105 255 128 0
-0.0859815 0.0858271 0.105 255 128 0
0.113307 0.0113755 0.105 255 128 0
0.110015 0.00420586 0.105 255 128 0
0.122441 -0.0902531 0.105 255 128 0
-0.0581317 0.0503205 0.105 255 128 0
-0.051405 -0.0401321 0.105 255 128 0
0.0606376 0.0511703 0.105 255 128 0
0.0684664 0.129174 0.105 255 128 0
0.0511026 -0.0644087 0.105 255 128 0
0.0828922 -0.0314712 0.105 255 128 0
0.0619262 -0.0920097 0.105 255 128 0
-0.0725313 -0.0874023 0.105 255 128 0
0.121484 0.036762 0.105 255 128 0
-0.0265427 -0.0715556 0.105 255 128 0
0.0618941 0.0292633 0.105 255 128 0
-0.121218 -0.00765205 0.105 255 128 0
0.0228505 -0.117353 0.105 255 128 0
0.0537858 0.0397675 0.105 255 128 0
0.0106339 0.0117027 0.105 255 128 0
0.118095 -0.0950275 0.105 255 128 0
0.0495734 0.0646921 0.105 255 128 0
-0.124339 0.0266318 0.105 255 128 0
0.0819477 0.0759445 0.105 255 128 0
0.069198 -0.0697152 0.105 255 128 0
0.0498439 -0.111665 0.105 255 128 0
0.0564919 -0.130994 0.105 255 128 0
-0.118421 -0.0926067 0.105 255 128 0
-0.0820584 -0.138758 0.105 255 128 0
0.0763131 0.0588419 0.105 255 128 0
0.0693507 -0.0311242 0.105 255 128 0
-0.0704723 0.0877569 0.105 255 128 0
0.0171122 0.148638 0.105 255 128 0
0.0168806 -0.0655689 0.105 255 128 0
-0.0451778 0.0245467 0.105 255 128 0
0.0595224 -0.112569 0.105 255 128 0
0.0852485 0.0717094 0.105 255 128 0
0.0163871 0.00709464 0.105 255 128 0
-0.0240214 0.045561 0.105 255 128 0
0.0292966 -0.0255343 0.105 255 128 0
-0.0312848 0.108692 0.105 255 128 0
0.124229 0.146615 0.105 255 128 0
0.0270249 0.0439316 0.105 255 128 0
-0.00917526 -0.021698 0.105 255 128 0
-0.0144702 0.023831 0.105 255 128 0
0.117258 0.0624064 0.105 255 128 0
-0.0591492 -0.0694971 0.105 255 128 0
-0.0793253 -0.0522574 0.105 255 128 0
0.0560982 -0.0246471 0.105 255 128 0
0.0191745 0.112173 0.105 255 128 0
0.0571285 -0.0225343 0.105 255 128 0
0.0783827 0.0566814 0.105 255 128 0
-0.102202 0.0721996 0.105 255 128 0
-0.0879354 -0.131007 0.105 255 128 0
0.0914842 0.0899024 0.105 255 128 0
-0.0860621 -0.0289398 0.105 255 128 0
-0.063262 0.0537916 0.105 255 128 0
-0.0255006 -0.0535025 0.105 255 128 0
0.0836169 0.0223604 0.105 255 128 0
0.122578 0.0789951 0.105 255 128 0
-0.0703014 0.056766 0.105 255 128 0
0.106121 -0.0592894 0.105 255 128 0
-0.116395 0.00819491 0.105 255 128 0
0.0255699 0.0491759 0.105 255 128 0
-0.0408411 -0.126908 0.105 255 128 0
-0.0431932 -0.0281131 0.105 255 128 0
0.0452233 -0.0701308 0.105 255 128 0
-0.107398 0.119557 0.105 255 128 0
-0.0867811 0.0335484 0.105 255 128 0
-0.0446437 -0.120718 0.105 255 128 0
-0.0799009 0.103977 0.105 255 128 0
-0.0791166 -0.0786232 0.105 255 128 0
-0.0200604 -0.0845418 0.105 255 128 0
-0.0760767 -0.0970889 0.105 255 128 0
0.0868324 0.0890794 0.105 255 128 0
-0.0268377 -0.0933091 0.105 255 128 0
0.0625048 -0.0289708 0.105 255 128 0
-0.017048 -0.0675961 0.105 255 128 0
-0.0882176 -0.0121416 0.105 255 128 0
0.0244352 -0.0906447 0.105 255 128 0
-0.103183 0.0300226 0.105 255 128 0
-0.0554587 -0.079068 0.105 255 128 0
-0.0231435 -0.122231 0.105 255 128 0
-0.0822602 -0.0401022 0.105 255 128 0
-0.0354517 0.144006 0.105 255 128 0
-0.0754066 -0.108116 0.105 255 128 0
-0.0489652 -0.00647501 0.105 255 128 0
-0.0667639 0.141068 0.105 255 128 0
0.0451109 0.117248 0.105 255 128 0
0.0714986 0.0493859 0.105 255 128 0
0.0146439 -0.103176 0.105 255 128 0
0.0263268 0.0288642 0.105 255 128 0
-0.115294 -0.0961413 0.105 255 128 0
-0.0243376 -0.0272671 0.105 255 128 0
0.123187 -0.0250523 0.105 255 128 0
-0.0589033 -0.124803 0.105 255 128 0
-0.0714962 0.0908638 0.105 255 128 0
0.118958 -0.0216592 0.105 255 128 0
-0.108256 -0.0174279 0.105 255 128 0
-0.0576393 0.0956196 0.105 255 128 0
-0.0959759 -0.0988789 0.105 255 128 0
-0.0895893 -0.0521665 0.105 255 128 0
-0.00411547 0.0822017 0.105 255 128 0
0.0733992 -0.125439 0.105 255 128 0
0.120308 -0.054409 0.105 255 128 0
0.0906895 0.120381 0.105 255 128 0
-0.123702 0.131169 0.105 255 128 0
0.0409314 0.0570927 0.105 255 128 0
0.0468273 0.0489607 0.105 255 128 0
-0.0621116 -0.12365 0.105 255 128 0
-0.0621076 -0.0599208 0.105 255 128 0
-0.0156055 0.0623024 0.105 255 128 0
-0.118583 0.100712 0.105 255 128 0
-0.0903618 0.0422569 0.105 255 128 0
0.0274038 -0.0818636 0.105 255 128 0
-0.0678028 0.119034 0.105 255 128 0
-0.121115 0.0176387 0.105 255 128 0
0.100585 0.123462 0.105 255 128 0
0.0611646 -0.0221872 0.105 255 128 0
-0.0579275 0.0101796 0.105 255 128 0
-0.0501281 -0.112209 0.105 255 128 0
-0.0409068 -0.00473249 0.105 255 128 0
-0.105676 -0.0856611 0.105 255 128 0
0.0661291 -0.0968817 0.105 255 128 0
0.00149525 -0.0811244 0.105 255 128 0
0.0956348 0.025668 0.105 255 128 0
-0.0628972 0.142556 0.105 255 128 0
-0.0487974 -0.0208079 0.105 255 128 0
-0.10457 0.149908 0.105 255 128 0
-0.122333 0.0160496 0.105 255 128 0
-0.0117243 -0.122676 0.105 255 128 0
0.0366429 0.00422003 0.105 255 128 0
0.00575146 -0.149092 0.105 255 128 0
-0.0739482 0.108016 0.105 255 128 0
-0.117198 -0.0886016 0.105 255 128 0
-0.026032 -0.0059623 0.105 255 128 0
-0.0305144 0.0433775 0.105 255 128 0
0.0629091 -0.0160862 0.105 255 128 0
-0.0979182 -0.089354 0.105 255 128 0
0.109429 -0.0720465 0.105 255 128 0
0.0606854 0.0319631 0.105 255 128 0
0.0736614 0.0435621 0.105 255 128 0
-0.0637263 -0.074364 0.105 255 128 0
0.0278476 -0.138706 0.105 255 128 0
-0.0318542 0.118363 0.105 255 128 0
-0.0252273 0.119384 0.105 255 128 0
0.0810305 0.109007 0.105 255 128 0
0.0726168 0.0246816 0.105 255 128 0
0.0484289 -0.0707435 0.105 255 128 0
0.0931961 -0.093759 0.105 255 128 0
0.121673 0.086098 0.105 255 128 0
0.117358 -0.00361879 0.105 255 128 0
-0.0502635 -0.0230581 0.105 255 128 0
0.117332 -0.125324 0.105 255 128 0
-0.0432184 -0.0664172 0.105 255 128 0
0.0711105 0.131358 0.105 255 128 0
-0.0652218 0.0180136 0.105 255 128 0
-0.0984121 -0.135273 0.105 255 128 0
-0.09493 0.141999 0.105 255 128 0
0.0217981 0.0737266 0.105 255 128 0
0.106822 -0.101575 0.105 255 128 0
-0.111443 -0.143211 0.105 255 128 0
-0.120173 0.110358 0.105 255 128 0
0.0264529 0.14886 0.105 255 128 0
-0.0896259 0.0884869 0.105 255 128 0
0.0686435 0.119241 0.105 255 128 0
-0.0416362 -0.072656 0.105 255 128 0
-0.0796306 0.0468752 0.105 255 128 0
-0.086903 -0.105379 0.105 255 128 0
0.032467 -0.0125867 0.105 255 128 0
0.119846 0.0871195 0.105 255 128 0
-0.0859923 -0.037861 0.105 255 128 0
0.0142437 0.149507 0.105 255 128 0
-0.0704472 -0.0818086 0.105 255 128 0
-0.0625975 0.0681023 0.105 255 128 0
0.103333 -0.131983 0.105 255 128 0
0.0215007 -0.0909378 0.105 255 128 0
0.04788 -0.0202409 0.105 255 128 0
0.0335866 0.0979379 0.105 255 128 0
-0.0573335 0.0254883 0.105 255 128 0
-0.0182449 0.0875858 0.105 255 128 0
0.119298 0.032777 0.105 255 128 0
-0.0254899 0.0128731 0.105 255 128 0
0.0360791 0.0326386 0.105 255 128 0
0.0852923 -0.142006 0.105 255 128 0
-0.00466338 -0.124943 0.105 255 128 0
0.12235 -0.00543044 0.105 255 128 0
0.0997728 0.0473783 0.105 255 128 0
-0.00243236 0.0455457 0.105 255 128 0
-0.0915138 -0.0892845 0.105 255 128 0
-0.0429177 -0.0379313 0.105 255 128 0
-0.0982438 -0.0435949 0.105 255 128 0
-0.0669568 0.132955 0.105 255 128 0
0.00543458 0.0227884 0.105 255 128 0
-0.0520887 -0.00990441 0.105 255 128 0
-0.0797322 -0.0337919 0.105 255 128 0
-0.0526406 -0.0355139 0.105 255 128 0
-0.0176331 -0.127594 0.105 255 128 0
-0.0322705 -0.0404244 0.105 255 128 0
0.110477 -0.0211138 0.105 255 128 0
-0.0293364 -0.0797354 0.105 255 128 0
-0.0172956 -0.0477043 0.105 255 128 0
0.121876 0.0425491 0.105 255 128 0
-0.0738398 -0.0388069 0.105 255 128 0
0.0342299 -0.00739203 0.105 255 128 0
0.0831469 -0.0310382 0.105 255 128 0
0.0712614 -0.147983 0.105 255 128 0
0.0920343 0.0791557 0.105 255 128 0
-0.0806604 -0.10011 0.105 255 128 0
-0.0573228 -0.0904007 0.105 255 128 0
-0.0263691 -0.134948 0.105 255 128 0
0.00395741 0.0618942 0.105 255 128 0
-0.0769658 -0.0103962 0.105 255 128 0
0.123746 0.00393379 0.105 255 128 0
-0.103927 -0.0823051 0.105 255 128 0
-0.0109146 0.00607122 0.105 255 128 0
-0.0497077 -0.0279785 0.105 255 128 0
-0.0347424 0.070595 0.105 255 128 0
0.0955238 -0.115588 0.105 255 128 0
0.00206072 -0.146594 0.105 255 128 0
-0.0215109 -0.0262994 0.105 255 128 0
-0.102331 0.0307543 0.105 255 128 0
0.119943 -0.14265 0.105 255 128 0
-0.103302 0.124323 0.105 255 128 0
0.0558077 -0.0651321 0.105 255 128 0
0.0417764 0.0472134 0.105 255 128 0
0.0821749 0.0299787 0.105 255 128 0
0.089838 -0.13648 0.105 255 128 0
0.0417456 0.059984 0.105 255 128 0
-0.0831346 0.111922 0.105 255 128 0
0.0689641 0.00251587 0.105 255 128 0
0.0168771 -0.126482 0.105 255 128 0
-0.0814863 -0.0929847 0.105 255 128 0
0.0630636 -0.149457 0.105 255 128 0
0.00510778 -0.142649 0.105 255 128 0
-0.0980521 -0.096094 0.105 255 128 0
-0.0651719 -0.0410682 0.105 255 128 0
0.0456479 0.0463266 0.105 255 128 0
-0.0185322 0.128967 0.105 255 128 0
-0.0039371 -0.0174634 0.105 255 128 0
-0.0191926 0.118198 0.105 255 128 0
0.0566023 0.00719133 0.105 255 128 0
0.0470636 -0.0687289 0.105 255 128 0
0.0907029 0.0880046 0.105 255 128 0
-0.0272036 -0.126076 0.105 255 128 0
-0.0790896 -0.140895 0.105 255 128 0
0.089525 -0.0285313 0.105 255 128 0
0.0879491 0.0567041 0.105 255 128 0
0.00450862 0.1431 0.105 255 128 0
0.0687717 -0.00713511 0.105 255 128 0
-0.0788169 0.00681262 0.105 255 128 0
0.0871478 0.10282 0.105 255 128 0
-0.0278642 0.099902 0.105 255 128 0
-0.0996241 -0.146741 0.105 255 128 0
0.0363252 0.0888284 0.105 255 128 0
-0.00464564 0.0401805 0.105 255 128 0
-0.0221232 0.0493544 0.105 255 128 0
0.0522763 0.0542525 0.105 255 128 0
-0.071668 -0.0306221 0.105 255 128 0
-0.0359883 -0.113981 0.105 255 128 0
0.112283 0.0670679 0.105 255 128 0
-0.110627 -0.0433479 0.105 255 128 0
-0.0725165 -0.127309 0.105 255 128 0
-0.107814 0.101205 0.105 255 128 0
-0.00373337 -0.0649061 0.105 255 128 0
-0.0468877 -0.10471 0.105 255 128 0
0.0859196 -0.0295676 0.105 255 128 0
0.0724959 0.0158472 0.105 255 128 0
-0.0382561 -0.0975147 0.105 255 128 0
0.0500833 0.125691 0.105 255 128 0
0.0657389 0.0971577 0.105 255 128 0
-0.124558 -0.0609356 0.105 255 128 0
0.0122731 -0.0937296 0.105 255 128 0
0.0878895 -0.0596487 0.105 255 128 0
-0.104189 -0.0754396 0.105 255 128 0
0.080028 0.0891321 0.105 255 128 0
0.0546431 0.122653 0.105 255 128 0
0.0688481 -0.0820833 0.105 255 128 0
0.0725298 0.120797 0.105 255 128 0
-0.110009 0.0902243 0.105 255 128 0
-0.0194917 0.0457354 0.105 255 128 0
-0.0487625 -0.0316208 0.105 255 128 0
0.00216005 0.124724 0.105 255 128 0
-0.0927954 -0.068431 0.105 255 128 0
0.110358 0.0447558 0.105 255 128 0
0.0462832 0.0230961 0.105 255 128 0
0.0426199 0.0121094 0.105 255 128 0
0.0254907 -0.0108063 0.105 255 128 0
0.0430171 0.0298336 0.105 255 128 0
0.0371364 -0.072255 0.105 255 128 0
0.0707877 0.00530882 0.105 255 128 0
-0.120194 0.00190555 0.105 255 128 0
0.0345655 -0.0571724 0.105 255 128 0
0.0701219 -0.108684 0.105 255 128 0
-0.0563526 0.0860959 0.105 255 128 0
-0.0924925 -0.0689936 0.105 255 128 0
-0.0651687 -0.135064 0.105 255 128 0
0.0528487 -0.12083 0.105 255 128 0
-0.100147 -0.062541 0.105 255 128 0
-0.010759 0.0153949 0.105 255 128 0
0.063288 -0.0545288 0.105 255 128 0
0.0866069 0.0804894 0.105 255 128 0
0.051439 0.0980357 0.105 255 128 0
0.0735622 0.144893 0.105 255 128 0
0.0134785 -0.0774881 0.105 255 128 0
0.0544001 -0.131314 0.105 255 128 0
-0.0138354 -0.0435564 0.105 255 128 0
0.0945715 -0.14811 0.105 255 128 0
-0.0688939 -0.0367813 0.105 255 128 0
-0.0982284 0.13732 0.105 255 128 0
0.0865197 0.0275919 0.105 255 128 0
0.0430857 -0.0673814 0.105 255 128 0
-0.0829296 -0.0553792 0.105 255 128 0
-0.00585511 -0.0634413 0.105 255 128 0
0.0429658 0.121594 0.105 255 128 0
-0.0968315 -0.138999 0.105 255 128 0
-0.0752195 -0.0153621 0.105 255 128 0
0.0429942 0.139742 0.105 255 128 0
-0.104901 -0.0632969 0.105 255 128 0
-0.0756496 -0.0653051 0.105 255 128 0
0.0933165 0.00361351 0.105 255 128 0
-0.0741926 -0.0073967 0.105 255 128 0
0.0852918 -0.00573351 0.105 255 128 0
0.101078 0.0367472 0.105 255 128 0
-0.1005 -0.0253955 0.105 255 128 0
-0.0547565 -0.102328 0.105 255 128 0
-0.106094 -0.0483188 0.105 255 128 0
0.0339532 -0.0668666 0.105 255 128 0
0.0734701 0.0374379 0.105 255 128 0
-0.0608551 -0.0125104 0.105 255 128 0
-0.0888772 -0.0914874 0.105 255 128 0
-0.0600404 -0.0446289 0.105 255 128 0
0.0216023 0.109027 0.105 255 128 0
-0.0112926 -0.0763994 0.105 255 128 0
-0.110484 0.109508 0.105 255 128 0
-0.0285317 0.117206 0.105 255 128 0
0.0836496 -0.0765241 0.105 255 128 0
0.0520814 -0.0732469 0.105 255 128 0
-0.0937097 0.132643 0.105 255 128 0
0.107302 0.130366 0.105 255 128 0
-0.0437208 -0.0201858 0.105 255 128 0
0.042731 0.0421143 0.105 255 128 0
-0.00626863 -0.0796465 0.105 255 128 0
0.0502992 -0.102983 0.105 255 128 0
0.0254096 -0.0601201 0.105 255 128 0
0.0897588 -0.124222 0.105 255 128 0
-0.00837137 0.0684959 0.105 255 128 0
-0.0060931 -0.00661093 0.105 255 128 0
0.0148273 0.120628 0.105 255 128 0
0.0701696 0.0582469 0.105 255 128 0
-0.0783884 -0.0783161 0.105 255 128 0
0.0526445 0.0405958 0.105 255 128 0
-0.122615 -0.106424 0.105 255 128 0
-0.0890374 0.0318629 0.105 255 128 0
0.114301 -0.0184602 0.105 255 128 0
0.00766825 0.119522 0.105 255 128 0
-0.0185178 -0.149495 0.105 255 128 0
0.116574 -0.0459994 0.105 255 128 0
0.0184432 0.142324 0.105 255 128 0
0.0163298 0.0102909 0.105 255 128 0
0.0891806 -0.0556934 0.105 255 128 0
-0.0262465 -0.110928 0.105 255 128 0
0.086156 0.118746 0.105 255 128 0
0.101989 0.146088 0.105 255 128 0
-0.122061 0.0870303 0.105 255 128 0
0.0695724 0.146183 0.105 255 128 0
0.0559225 -0.122906 0.105 255 128 0
0.121729 0.0218956 0.105 255 128 0
-0.00358377 0.0158665 0.105 255 128 0
-0.0218127 0.145867 0.105 255 128 0
0.0878669 0.109396 0.105 255 128 0
-0.0481235 0.0372025 0.105 255 128 0
0.00547192 -0.0234969 0.105 255 128 0
0.0255382 0.0450497 0.105 255 128 0
-0.0731622 -0.107447 0.105 255 128 0
-0.0144795 0.0662511 0.105 255 128 0
-0.0514379 -0.0475393 0.105 255 128 0
-0.0824789 0.0406385 0.105 255 128 0
-0.0134516 -0.108807 0.105 255 128 0
0.0807743 -0.105683 0.105 255 128 0
-0.0114696 0.0510093 0.105 255 128 0
-0.0970092 0.106062 0.105 255 128 0
-0.0406132 0.00482282 0.105 255 128 0
-0.017555 0.11648 0.105 255 128 0
0.00686063 0.0902645 0.105 255 128 0
-0.057225 0.00914432 0.105 255 128 0
-0.0957783 -0.00343515 0.105 255 128 0
0.112506 -0.148029 0.105 255 128 0
0.0155342 -0.0501034 0.105 255 128 0
-0.0310815 -0.0977673 0.105 255 128 0
0.0362686 -0.0168957 0.105 255 128 0
0.00325322 -0.102421 0.105 255 128 0
0.0229589 -0.0520157 0.105 255 128 0
0.0909306 0.0556227 0.105 255 128 0
0.0193968 -0.0926413 0.105 255 128 0
-0.0917586 0.0504696 0.105 255 128 0
-0.0958108 0.127017 0.105 255 128 0
-0.0588817 -0.0629985 0.105 255 128 0
0.064739 0.0661658 0.105 255 128 0
-0.0579804 0.057496 0.105 255 128 0
0.105292 0.0511398 0.105 255 128 0
0.0664456 -0.0649402 0.105 255 128 0
-0.0116257 -0.108738 0.105 255 128 0
-0.0689927 -0.0489964 0.105 255 128 0
0.0315703 0.0119489 0.105 255 128 0
-0.0322968 0.0422437 0.105 255 128 0
0.0127289 0.0349138 0.105 255 128 0
0.101105 0.0304794 0.105 255 128 0
-0.0981358 -0.0897545 0.105 255 128 0
0.103623 0.0610296 0.105 255 128 0
0.0854349 -0.0883078 0.105 255 128 0
0.0879154 0.0813344 0.105 255 128 0
-0.112666 0.0126835 0.105 255 128 0
0.0902232 -0.145368 0.105 255 128 0
0.0937519 -0.103914 0.105 255 128 0
-0.0765953 0.0600041 0.105 255 128 0
0.0641309 0.131205 0.105 255 128 0
-0.116424 -0.0914134 0.105 255 128 0
0.0505569 -0.106553 0.105 255 128 0
0.118315 0.0708222 0.105 255 128 0
-0.0410427 -0.109282 0.105 255 128 0
-0.0580812 -0.0606796 0.105 255 128 0
0.0445249 0.121168 0.105 255 128 0
-0.0580022 0.122612 0.105 255 128 0
0.094564 0.00494151 0.105 255 128 0
0.0732917 0.103531 0.105 255 128 0
-0.111944 0.0966097 0.105 255 128 0
-0.0398097 -0.144479 0.105 255 128 0
0.116467 0.0688656 0.105 255 128 0
-0.0387138 0.0142576 0.105 255 128 0
-0.0848412 -0.00670914 0.105 255 128 0
0.0178125 0.0616324 0.105 255 128 0
0.000368622 0.0184663 0.105 255 128 0
0.023032 -0.122075 0.105 255 128 0
-0.0731617 0.0270355 0.105 255 128 0
-0.117069 0.0938187 0.105 255 128 0
-0.0105335 0.139082 0.105 255 128 0
0.0479611 -0.00540088 0.105 255 128 0
-0.0906002 -0.0766071 0.105 255 128 0
-0.0343169 -0.0483807 0.105 255 128 0
0.0656673 0.112945 0.105 255 128 0
-0.0126469 0.0589031 0.105 255 128 0
0.0359585 0.100298 0.105 255 128 0
0.0987197 -0.0806932 0.105 255 128 0
0.0875355 0.0182746 0.105 255 128 0
-0.0766626 0.115682 0.105 255 128 0
-0.0920763 -0.132033 0.105 255 128 0
-0.0777864 -0.0515274 0.105 255 128 0
-0.051043 -0.0713939 0.105 255 128 0
0.0674062 0.0617525 0.105 255 128 0
-0.0758366 0.145662 0.105 255 128 0
0.117549 -0.0725826 0.105 255 128 0
0.0331075 -0.0205112 0.105 255 128 0
-0.0124387 -0.113633 0.105 255 128 0
-0.0218991 -0.1177 0.105 255 128 0
0.0620621 -0.0262036 0.105 255 128 0
-0.0750985 0.0904687 0.105 255 128 0
-0.0646355 0.0162402 0.105 255 128 0
0.0274168 0.0159825 0.105 255 128 0
-0.0390983 0.0188427 0.105 255 128 0
-0.107425 -0.0913091 0.105 255 128 0
0.104053 -0.0823421 0.105 255 128 0
0.0347795 0.00847487 0.105 255 128 0
-0.0191472 -0.132202 0.105 255 128 0
0.115909 0.127168 0.105 255 128 0
0.0484046 -0.0413842 0.105 255 128 0
-0.0635267 0.0989931 0.105 255 128 0
-0.0263044 -0.028912 0.105 255 128 0
-0.0349175 -0.052543 0.105 255 128 0
0.00459619 0.0195467 0.105 255 128 0
-0.0830395 -0.111422 0.105 255 128 0
0.0680418 -0.0662051 0.105 255 128 0
0.095217 -0.0345377 0.105 255 128 0
0.0376963 -0.133148 0.105 255 128 0
0.0582484 0.0722113 0.105 255 128 0
0.0798735 0.0818784 0.105 255 128 0
-0.00653339 0.0817107 0.105 255 128 0
-0.0927834 0.0661747 0.105 255 128 0
0.123786 0.076084 0.105 255 128 0
-0.0596184 0.114708 0.105 255 128 0
-0.00439839 -0.0124975 0.105 255 128 0
-0.0687688 0.0703465 0.105 255 128 0
0.0109152 0.0989369 0.105 255 128 0
-0.122071 0.122075 0.105 255 128 0
-0.00577038 0.0126471 0.105 255 128 0
0.0416468 -0.148604 0.105 255 128 0
-0.0909134 0.0234469 0.105 255 128 0
0.0861952 -0.091949 0.105 255 128 0
0.124228 0.113738 0.105 255 128 0
-0.110117 0.0349817 0.105 255 128 0
0.0343043 0.137836 0.105 255 128 0
0.113161 -0.0973642 0.105 255 128 0
0.0694084 -0.0393832 0.105 255 128 0
-0.0669507 0.145657 0.105 255 128 0
0.049295 0.040786 0.105 255 128 0
-0.0304829 -0.14344 0.105 255 128 0
-0.109693 -0.145013 0.105 255 128 0
-0.0215997 -0.148628 0.105 255 128 0
0.0014463 -0.00830641 0.105 255 128 0
0.121901 0.097269 0.105 255 128 0
-0.0421289 -0.125467 0.105 255 128 0
0.0693546 0.14982 0.105 255 128 0
-0.0732206 -0.0118342 0.105 255 128 0
-0.100786 0.121377 0.105 255 128 0
-0.0456034 -0.149503 0.105 255 128 0
-0.00154756 -0.059887 0.105 255 128 0
0.031568 0.0463814 0.105 255 128 0
0.0537941 0.119625 0.105 255 128 0
-0.125 -0.0492572 0.101887 255 128 0
-0.125 0.113879 0.102323 255 128 0
-0.125 0.0265241 0.0979273 255 128 0
-0.125 0.0210063 0.0960774 255 128 0
-0.125 0.0102596 0.102203 255 128 0
-0.125 0.0691283 0.0982482 255 128 0
-0.125 0.0798021 0.10238 255 128 0
-0.125 -0.103854 0.102042 255 128 0
-0.125 0.137205 0.102775 255 128 0
-0.125 0.0701692 0.0976029 255 128 0
-0.125 -0.059046 0.100452 255 128 0
-0.125 -0.0123957 0.0961549 255 128 0
-0.125 0.10972 0.0961208 255 128 0
-0.125 0.0698105 0.100406 255 128 0
-0.125 0.0507535 0.0984913 255 128 0
-0.125 -0.135206 0.09802 255 128 0
-0.125 0.0659224 0.101053 255 128 0
-0.125 0.0080876 0.0983208 255 128 0
-0.125 -0.114012 0.104617 255 128 0
-0.125 0.149019 0.104161 255 128 0
-0.125 0.109709 0.101027 255 128 0
-0.125 -0.115916 0.100693 255 128 0
-0.125 0.132572 0.103628 255 128 0
-0.125 0.0745711 0.101184 255 128 0
-0.125 0.0798461 0.0996067 255 128 0
-0.125 -0.0589364 0.103986 255 128 0
-0.125 0.0387129 0.0989752 255 128 0
-0.125 -0.077637 0.0958815 255 128 0
-0.125 -0.123223 0.0965296 255 128 0
-0.125 -0.0791472 0.100929 255 128 0
0.125 -0.140582 0.099831 255 128 0
0.125 -0.148805 0.0978014 255 128 0
0.125 0.130618 0.0990424 255 128 0
0.125 -0.112894 0.102477 255 128 0
0.125 -0.138213 0.0954866 255 128 0
0.125 -0.0839276 0.0987689 255 128 0
0.125 0.116895 0.0999076 255 128 0
0.125 -0.109448 0.103994 255 128 0
0.125 -0.0233951 0.0967963 255 128 0
0.125 0.00377561 0.10094 255 128 0
0.125 0.130836 0.101369 255 128 0
0.125 0.146548 0.101143 255 128 0
0.125 0.0841577 0.0968251 255 128 0
0.125 -0.0180895 0.0996664 255 128 0
0.125 0.115305 0.103026 255 128 0
0.125 0.132454 0.0973803 255 128 0
0.125 0.126471 0.104354 255 128 0
0.125 0.104806 0.10148 255 128 0
0.125 -0.0361263 0.0978348 255 128 0
0.125 0.0812559 0.103194 255 128 0
0.125 0.102349 0.0993536 255 128 0
0.125 0.0809917 0.10006 255 128 0
0.125 0.131604 0.0979866 255 128 0
0.125 0.00324296 0.103373 255 128 0
0.125 -0.0752757 0.0975411 255 128 0
0.125 0.0200961 0.102239 255 128 0
0.125 0.00862113 0.096062 255 128 0
0.125 0.146506 0.0998584 255 128 0
0.125 0.148268 0.103222 255 128 0
0.125 0.147575 0.0992802 255 128 0
0.0640698 0.15 0.101239 255 128 0
0.0158436 0.15 0.0962013 255 128 0
0.0346822 0.15 0.0970071 255 128 0
-0.00993307 0.15 0.0995063 255 128 0
-0.121062 0.15 0.0983229 255 128 0
-0.0744584 0.15 0.0977876 255 128 0
-0.0416204 0.15 0.103423 255 128 0
-0.0444852 0.15 0.100508 255 128 0
0.108941 0.15 0.102821 255 128 0
-0.0138898 0.15 0.100563 255 128 0
0.0324026 0.15 0.103765 255 128 0
0.0679909 0.15 0.0959333 255 128 0
-0.0685739 0.15 0.104416 255 128 0
0.114923 0.15 0.102313 255 128 0
-0.0828797 0.15 0.103923 255 128 0
-0.0636764 0.15 0.0999365 255 128 0
-0.0378914 0.15 0.0968604 255 128 0
-0.018787 0.15 0.0998071 255 128 0
0.0703603 0.15 0.100204 255 128 0
0.0701701 0.15 0.103407 255 128 0
-0.102322 0.15 0.0982158 255 128 0
-0.120929 0.15 0.0957025 255 128 0
-0.0107406 0.15 0.103125 255 128 0
-0.123924 0.15 0.0985112 255 128 0
0.0196377 0.15 0.0988174 255 128 0
-0.0700861 -0.15 0.0978525 255 128 0
-0.0925322 -0.15 0.104278 255 128 0
0.0202358 -0.15 0.10427 255 128 0
-0.0351168 -0.15 0.101776 255 128 0
0.0497985 -0.15 0.103848 255 128 0
-0.0581303 -0.15 0.0981649 255 128 0
0.0916515 -0.15 0.0966028 255 128 0
-0.0898977 -0.15 0.10224 255 128 0
-0.0332591 -0.15 0.0984137 255 128 0
-0.044245 -0.15 0.103026 255 128 0
0.0390685 -0.15 0.0985262 255 128 0
0.0599602 -0.15 0.0998767 255 128 0
-0.0348808 -0.15 0.104426 255 128 0
-0.0197582 -0.15 0.0970059 255 128 0
-0.0952051 -0.15 0.103853 255 128 0
0.0880413 -0.15 0.0968367 255 128 0
0.0108228 -0.15 0.100937 255 128 0
0.104185 -0.15 0.102895 255 128 0
0.000959984 -0.15 0.102385 255 128 0
-0.00711855 -0.15 0.102786 255 128 0
-0.0167131 -0.15 0.104313 255 128 0
0.0880546 -0.15 0.10439 255 128 0
0.122834 -0.15 0.102616 255 128 0
0.0746295 -0.15 0.100099 255 128 0
0.0726052 -0.15 0.102894 255 128 0
-0.0500376 -0.147332 0 255 128 0
0.0199688 -0.153673 0 255 128 0
-0.0565033 -0.153519 0 255 128 0
0.118049 -0.154409 0 255 128 0
0.0409528 -0.14644 0 255 128 0
-0.0532131 -0.145149 0 255 128 0
-0.0200338 -0.153696 0 255 128 0
0.0318339 -0.149102 0 255 128 0
-0.0785763 -0.146574 0 255 128 0
0.00312007 -0.150468 0 255 128 0
0.0866774 -0.147818 0 255 128 0
-0.0650596 -0.145328 0 255 128 0
-0.0470663 -0.152265 0 255 128 0
0.0368848 -0.15029 0 255 128 0
0.0616302 -0.146346 0 255 128 0
0.0136359 -0.152752 0 255 128 0
-0.11353 -0.146866 0 255 128 0
0.0284886 -0.147784 0 255 128 0
0.0670146 -0.150834 0 255 128 0
0.00405678 -0.152776 0 255 128 0
-0.0950255 -0.146874 0 255 128 0
0.0400122 -0.150141 0 255 128 0
0.00763604 -0.153462 0 255 128 0
0.0600567 -0.147764 0 255 128 0
0.0737233 -0.15212 0 255 128 0
0.0382129 -0.146967 0.1 255 128 0
-0.0310436 -0.150003 0.1 255 128 0
0.0674483 -0.149952 0.1 255 128 0
0.0859463 -0.154099 0.1 255 128 0
0.1216 -0.153579 0.1 255 128 0
0.0666996 -0.148556 0.1 255 128 0
0.0271522 -0.148425 0.1 255 128 0
-0.0827165 -0.152655 0.1 255 128 0
-0.0846328 -0.148471 0.1 255 128 0
0.0641897 -0.149513 0.1 255 128 0
-0.0880576 -0.150915 0.1 255 128 0
0.04294 -0.146817 0.1 255 128 0
0.118704 -0.146393 0.1 255 128 0
-0.0644277 -0.14983 0.1 255 128 0
-0.0626739 -0.15064 0.1 255 128 0
-0.121528 -0.14793 0.1 255 128 0
0.0927692 -0.153676 0.1 255 128 0
-0.0732136 -0.152968 0.1 255 128 0
-0.0444817 -0.152849 0.1 255 128 0
-0.0635573 -0.148302 0.1 255 128 0
0.106937 -0.146465 0.1 255 128 0
0.0248446 -0.148291 0.1 255 128 0
-0.0882286 -0.149045 0.1 255 128 0
0.108731 -0.147823 0.1 255 128 0
-0.0335464 -0.154231 0.1 255 128 0
-0.125 -0.153095 0.0703017 255 128 0
-0.125 -0.146534 0.0760639 255 128 0
-0.125 -0.152482 0.000495593 255 128 0
-0.125 -0.152135 0.0434368 255 128 0
-0.125 -0.148975 0.0806997 255 128 0
-0.125 -0.152697 0.0461896 255 128 0
-0.125 -0.147458 0.0182392 255 128 0
-0.125 -0.151541 0.0461941 255 128 0
-0.125 -0.150682 0.0737987 255 128 0
-0.125 -0.146552 0.00211974 255 128 0
0.125 -0.14993 0.0741048 255 128 0
0.125 -0.152715 0.0996366 255 128 0
0.125 -0.148173 0.0255772 255 128 0
0.125 -0.153005 0.04932 255 128 0
0.125 -0.14882 0.035477 255 128 0
0.125 -0.148546 0.0757866 255 128 0
0.125 -0.151815 0.0390175 255 128 0
0.125 -0.15156 0.0799581 255 128 0
0.125 -0.149516 0.014154 255 128 0
0.125 -0.146762 0.00658201 255 128 0
-0.094263 -0.145 0.0848198 255 128 0
-0.0670451 -0.145 0.0267997 255 128 0
0.0344457 -0.145 0.0553695 255 128 0
0.0609652 -0.145 0.0446677 255 128 0
-0.0536317 -0.145 0.00951901 255 128 0
-0.0926973 -0.145 0.0974256 255 128 0
0.0491665 -0.145 0.0035389 255 128 0
0.0921853 -0.145 0.0563604 255 128 0
0.067533 -0.145 0.0647863 255 128 0
-0.0695864 -0.145 0.0939585 255 128 0
0.000749497 -0.145 0.0741687 255 128 0
0.0671741 -0.145 0.0738293 255 128 0
0.0444659 -0.145 0.0531288 255 128 0
-0.0862654 -0.145 0.0367441 255 128 0
0.0102408 -0.145 0.0946876 255 128 0
-0.107257 -0.145 0.0669529 255 128 0
-0.0552261 -0.145 0.00605417 255 128 0
-0.0695281 -0.145 0.0807211 255 128 0
-0.109378 -0.145 0.026535 255 128 0
0.100084 -0.145 0.0136268 255 128 0
0.0263721 -0.145 0.000712055 255 128 0
0.0557711 -0.145 0.0855259 255 128 0
-0.120603 -0.145 0.0222189 255 128 0
0.012095 -0.145 0.011595 255 128 0
-0.0905881 -0.145 0.0154528 255 128 0
-0.0190557 -0.145 0.0368429 255 128 0
0.0392599 -0.145 0.057724 255 128 0
0.0398787 -0.145 0.0822432 255 128 0
-0.0586187 -0.145 0.00387346 255 128 0
-0.0215172 -0.145 0.00624343 255 128 0
0.0861182 -0.145 0.0717882 255 128 0
-0.111823 -0.145 0.0175904 255 128 0
0.0507149 -0.145 0.0222163 255 128 0
0.118756 -0.145 0.0190943 255 128 0
0.116334 -0.145 0.0927338 255 128 0
0.0955118 -0.145 0.0803398 255 128 0
-0.0691209 -0.145 0.0764606 255 128 0
-0.100912 -0.145 0.0341245 255 128 0
0.0523532 -0.145 0.0950882 255 128 0
0.0434223 -0.145 0.0904866 255 128 0
0.102329 -0.145 0.0254304 255 128 0
-0.0482908 -0.145 0.064983 255 128 0
0.0158024 -0.145 0.0321768 255 128 0
-0.103493 -0.145 0.0770444 255 128 0
0.0163273 -0.145 0.0425427 255 128 0
-0.026484 -0.145 0.0395812 255 128 0
-0.0556739 -0.145 0.02487 255 128 0
-0.0597099 -0.145 0.00902554 255 128 0
-0.0658333 -0.145 0.0274715 255 128 0
-0.115109 -0.145 0.0998541 255 128 0
0.0427681 -0.145 0.0579405 255 128 0
0.110582 -0.145 0.0617356 255 128 0
0.0866029 -0.145 0.079353 255 128 0
0.0532444 -0.145 0.0166584 255 128 0
-0.0966788 -0.145 0.0816439 255 128 0
-0.080532 -0.145 0.0829538 255 128 0
-0.107508 -0.145 0.0134171 255 128 0
0.0307642 -0.145 0.0103883 255 128 0
-0.0148791 -0.145 0.0244184 255 128 0
0.0469054 -0.145 0.0623607 255 128 0
0.114251 -0.145 0.0412096 255 128 0
0.0785053 -0.145 0.0625767 255 128 0
0.0537861 -0.145 0.051971 255 128 0
-0.109364 -0.145 0.00157078 255 128 0
0.0750852 -0.145 0.00952543 255 128 0
0.109514 -0.145 0.043385 255 128 0
0.0455253 -0.145 0.0368622 255 128 0
0.0128155 -0.145 0.0984023 255 128 0
-0.103434 -0.145 0.09224 255 128 0
-0.0436216 -0.145 0.0559987 255 128 0
0.00934897 -0.145 0.0252404 255 128 0
-0.0796535 -0.145 0.024473 255 128 0
-0.077725 -0.145 0.0200262 255 128 0
-0.0791282 -0.145 0.0294706 255 128 0
0.0943035 -0.145 0.016162 255 128 0
0.101187 -0.145 0.0624168 255 128 0
-0.105005 -0.145 0.0261651 255 128 0
0.0396376 -0.145 0.0650984 255 128 0
-0.0794118 -0.145 0.0311026 255 128 0
-0.0567727 -0.145 0.0401497 255 128 0
0.0974378 -0.145 0.0953303 255 128 0
0.0466701 -0.145 0.0451555 255 128 0
0.0984531 -0.145 0.0227044 255 128 0
0.0683779 -0.145 0.0714356 255 128 0
0.118123 -0.145 0.0922207 255 128 0
-0.0248377 -0.145 0.0059919 255 128 0
-0.12386 -0.145 0.0681392 255 128 0
0.0795384 -0.145 0.0597937 255 128 0
0.0770033 -0.145 0.0251225 255 128 0
0.100233 -0.145 0.087461 255 128 0
-0.082905 -0.145 0.0159565 255 128 0
-0.0361692 -0.145 0.0403238 255 128 0
0.0615744 -0.145 0.0945314 255 128 0
0.0528058 -0.145 0.0582546 255 128 0
-0.110164 -0.145 0.0672015 255 128 0
-0.0287737 -0.145 0.0513527 255 128 0
-0.0574605 -0.145 0.0485401 255 128 0
0.091033 -0.145 0.0861879 255 128 0
-0.0407422 -0.145 0.0957557 255 128 0
-0.0155539 -0.145 0.0621787 255 128 0
0.0992759 -0.145 0.0550107 255 128 0
0.106454 -0.145 0.0608749 255 128 0
-0.0324621 -0.145 0.0641546 255 128 0
0.0460454 -0.145 0.0705795 255 128 0
0.00232418 -0.145 0.00825817 255 128 0
-0.0792526 -0.145 0.0128769 255 128 0
0.0540597 -0.145 0.091188 255 128 0
-0.0923453 -0.145 0.00231901 255 128 0
0.0794945 -0.145 0.0376537 255 128 0
0.113556 -0.145 0.0113696 255 128 0
-0.0823949 -0.145 0.090774 255 128 0
-0.0565883 -0.145 0.060606 255 128 0
0.0905585 -0.145 0.0962665 255 128 0
0.073845 -0.145 0.0576041 255 128 0
0.12253 -0.145 0.0910615 255 128 0
0.00431588 -0.145 0.0379375 255 128 0
-0.0152343 -0.145 0.0957692 255 128 0
