ply
format ascii 1.0
comment Created by Open3D
element vertex 1328
property double x
property double y
property double z
property uchar red
property uchar green
property uchar blue
end_header
0.080582 -0.155 0.24125 255 128 0
-0.0256125 -0.155 0.193712 255 128 0
0.0226242 -0.155 0.164957 255 128 0
-0.0912371 -0.155 0.0254376 255 128 0
-0.0666376 -0.155 0.182431 255 128 0
0.0425936 -0.155 0.204713 255 128 0
0.0956103 -0.155 0.114475 255 128 0
-0.0961793 -0.155 0.247264 255 128 0
0.0339816 -0.155 0.0299946 255 128 0
-0.0333096 -0.155 0.0384408 255 128 0
-0.0533091 -0.155 0.207376 255 128 0
-0.0719789 -0.155 0.116474 255 128 0
0.0313433 -0.155 0.231763 255 128 0
0.0477755 -0.155 0.227752 255 128 0
-0.0195504 -0.155 0.0361814 255 128 0
-0.0949213 -0.155 0.0239165 255 128 0
-0.0534498 -0.155 0.160651 255 128 0
0.048946 -0.155 0.0246128 255 128 0
-0.0800966 -0.155 0.240257 255 128 0
-0.0887896 -0.155 0.182691 255 128 0
0.0520504 -0.155 0.0494603 255 128 0
-0.0735362 -0.155 0.176656 255 128 0
0.0517687 -0.155 0.191852 255 128 0
0.0771662 -0.155 0.0727814 255 128 0
0.0707825 -0.155 0.159432 255 128 0
0.0102985 -0.155 0.0709444 255 128 0
-0.022277 -0.155 0.189252 255 128 0
0.0653024 -0.155 0.00632661 255 128 0
-0.00623095 -0.155 0.0270529 255 128 0
-0.0251917 -0.155 0.0701706 255 128 0
0.0143963 -0.155 0.203697 255 128 0
-0.0531827 -0.155 0.130244 255 128 0
-0.0280981 -0.155 0.167265 255 128 0
-0.0138183 -0.155 0.0197469 255 128 0
-0.0655507 -0.155 0.217859 255 128 0
0.0928091 -0.155 0.0358373 255 128 0
-0.0200521 -0.155 0.151652 255 128 0
0.0446309 -0.155 0.165359 255 128 0
0.0718314 -0.155 0.102697 255 128 0
-0.0299349 -0.155 0.15497 255 128 0
-0.00152526 -0.155 0.0122175 255 128 0
-0.0641753 -0.155 0.230479 255 128 0
-0.0222745 -0.155 0.0758722 255 128 0
0.0669219 -0.155 0.188163 255 128 0
0.0282023 -0.155 0.123928 255 128 0
0.0328039 -0.155 0.105758 255 128 0
0.0510029 -0.155 0.160067 255 128 0
-0.0348831 -0.155 0.0108386 255 128 0
0.0986329 -0.155 0.164807 255 128 0
0.052504 -0.155 0.101181 255 128 0
-0.0722682 -0.155 0.184282 255 128 0
-0.0137695 -0.155 0.0980942 255 128 0
0.0607553 -0.155 0.195194 255 128 0
-0.0672486 -0.155 0.226051 255 128 0
0.0514136 -0.155 0.222514 255 128 0
0.043927 -0.155 0.00658795 255 128 0
0.00826812 -0.155 0.209074 255 128 0
0.0202184 -0.155 0.107472 255 128 0
0.0925612 -0.155 0.0522465 255 128 0
0.0912837 -0.155 0.155633 255 128 0
-0.0145188 -0.155 0.0878886 255 128 0
-0.0388243 -0.155 0.00395987 255 128 0
-0.00152224 -0.155 0.127916 255 128 0
0.0125436 -0.155 0.0447169 255 128 0
0.0124486 -0.155 0.0726066 255 128 0
-0.0432012 -0.155 0.176033 255 128 0
-0.0529982 -0.155 0.196839 255 128 0
-0.0538684 -0.155 0.000302414 255 128 0
-0.0944641 -0.155 0.103169 255 128 0
0.020716 -0.155 0.0148485 255 128 0
0.0920084 -0.155 0.0475353 255 128 0
-0.0953895 -0.155 0.0990974 255 128 0
-0.0171658 -0.155 0.208034 255 128 0
-0.0445897 -0.155 0.217913 255 128 0
0.0325817 -0.155 0.209593 255 128 0
0.0856618 -0.155 0.0439415 255 128 0
0.0688629 -0.155 0.1523 255 128 0
-0.0950836 -0.155 0.112726 255 128 0
0.0512302 -0.155 0.0352602 255 128 0
-0.0326678 -0.155 0.0761191 255 128 0
-0.00335869 -0.155 0.11358 255 128 0
0.0234308 -0.155 0.0406715 255 128 0
0.00730963 -0.155 0.00915697 255 128 0
0.0845742 -0.155 0.144703 255 128 0
0.025287 -0.155 0.174584 255 128 0
0.0480283 -0.155 0.215411 255 128 0
0.0960583 -0.155 0.148656 255 128 0
0.0785428 -0.155 0.117125 255 128 0
-0.0862727 -0.155 0.0279691 255 128 0
0.0228402 -0.155 0.0858036 255 128 0
0.019516 -0.155 0.206715 255 128 0
0.0316606 -0.155 0.0121683 255 128 0
0.0495886 -0.155 0.0874308 255 128 0
-0.0550027 -0.155 0.107901 255 128 0
-0.0563157 -0.155 0.121369 255 128 0
0.0759082 -0.155 0.209544 255 128 0
0.0717678 -0.155 0.236533 255 128 0
-0.00152433 -0.155 0.030563 255 128 0
0.0247728 -0.155 0.113311 255 128 0
-0.0485659 -0.155 0.0414995 255 128 0
0.0242955 -0.155 0.011622 255 128 0
-0.0525466 -0.155 0.146974 255 128 0
0.0940115 -0.155 0.0494024 255 128 0
0.0914393 -0.155 0.00941014 255 128 0
-0.0694843 -0.155 0.0572296 255 128 0
-0.0756404 -0.155 0.210481 255 128 0
0.00626015 -0.155 0.105473 255 128 0
0.0116201 -0.155 0.191657 255 128 0
0.0591028 -0.155 0.146453 255 128 0
-0.0245054 -0.155 0.141438 255 128 0
-0.0490721 -0.155 0.227627 255 128 0
0.0852853 -0.155 0.159205 255 128 0
0.0151913 -0.155 0.146113 255 128 0
0.0222248 -0.155 0.013324 255 128 0
-0.00777431 -0.155 0.0591913 255 128 0
0.0793194 -0.155 0.177196 255 128 0
-0.0299115 -0.155 0.0638466 255 128 0
-0.0583855 -0.155 0.0452738 255 128 0
0.0187619 -0.155 0.0841958 255 128 0
0.0772172 -0.155 0.205402 255 128 0
0.0588725 -0.155 0.162801 255 128 0
0.0187665 -0.155 0.239778 255 128 0
-0.0461562 -0.155 0.0924059 255 128 0
-0.0902144 -0.155 0.14733 255 128 0
0.0306084 -0.155 0.238159 255 128 0
0.0905166 -0.155 0.247413 255 128 0
-0.0277687 -0.155 0.142162 255 128 0
0.0842383 -0.155 0.140627 255 128 0
-0.0922308 -0.155 0.171659 255 128 0
-0.0909893 -0.155 0.018789 255 128 0
0.0522145 -0.155 0.237644 255 128 0
0.032012 -0.155 0.131841 255 128 0
0.00576844 -0.155 0.0234159 255 128 0
-0.0556638 -0.155 0.0309716 255 128 0
-0.0781443 -0.155 0.092709 255 128 0
-0.0143992 -0.155 0.0411377 255 128 0
-0.0632719 -0.155 0.0714209 255 128 0
-0.0671124 -0.155 0.0353525 255 128 0
-0.00840092 -0.155 0.0309655 255 128 0
-0.0417024 -0.155 0.130456 255 128 0
0.04847 -0.155 0.0628311 255 128 0
0.0722704 -0.155 0.210869 255 128 0
-0.0464022 -0.155 0.247169 255 128 0
-0.00098641 -0.155 0.071328 255 128 0
-0.0167938 -0.155 0.215734 255 128 0
0.0799685 -0.155 0.080722 255 128 0
0.0381997 -0.155 0.0689092 255 128 0
-0.094475 -0.155 0.105159 255 128 0
-0.0783892 -0.155 0.192816 255 128 0
0.0536158 -0.155 0.00962744 255 128 0
-0.0385281 -0.155 0.126786 255 128 0
0.0226396 -0.155 0.216866 255 128 0
-0.0885346 -0.155 0.121886 255 128 0
0.0772065 -0.155 0.131584 255 128 0
-0.0481493 -0.155 0.167222 255 128 0
-0.0990271 -0.155 0.211901 255 128 0
-0.0329003 -0.155 0.0191701 255 128 0
-0.0432333 -0.155 0.0137287 255 128 0
0.034733 -0.155 0.0396528 255 128 0
-0.0761774 -0.155 0.245968 255 128 0
0.0674249 -0.155 0.0842464 255 128 0
-0.00254316 -0.155 0.0796623 255 128 0
-0.0766704 -0.155 0.148026 255 128 0
-0.0175025 -0.155 0.121327 255 128 0
0.0650378 -0.155 0.232639 255 128 0
-0.00406209 -0.155 0.0800746 255 128 0
0.0265088 -0.155 0.112681 255 128 0
-0.0233103 -0.155 0.0222623 255 128 0
0.0978269 -0.155 0.211544 255 128 0
-0.0727006 -0.155 0.234338 255 128 0
-0.0145098 -0.155 0.0304989 255 128 0
0.0324354 -0.155 0.182622 255 128 0
-0.0386652 -0.155 0.128066 255 128 0
-0.00254118 -0.155 0.222897 255 128 0
0.0273651 -0.155 0.0126296 255 128 0
-0.00663122 -0.155 0.0470294 255 128 0
-0.08767 -0.155 0.130846 255 128 0
0.0333886 -0.155 0.17176 255 128 0
0.0151064 -0.155 0.153102 255 128 0
0.0742636 -0.155 0.0462565 255 128 0
-0.00472056 -0.155 0.0135315 255 128 0
0.0710055 -0.155 0.113398 255 128 0
0.0623153 -0.155 0.186167 255 128 0
-0.0392187 -0.155 0.0769085 255 128 0
-0.0222281 -0.155 0.13482 255 128 0
-0.0285582 -0.155 0.0999501 255 128 0
-0.00677599 -0.155 0.0138124 255 128 0
-0.00671938 -0.155 0.179052 255 128 0
0.0773508 -0.155 0.062306 255 128 0
0.0121674 -0.155 0.0263633 255 128 0
-0.0665397 -0.155 0.141056 255 128 0
-0.001223 -0.155 0.0930768 255 128 0
-0.0236295 -0.155 0.157434 255 128 0
-0.0938985 -0.155 0.175409 255 128 0
-0.022158 -0.155 0.0408954 255 128 0
-0.0568092 -0.155 0.0775796 255 128 0
0.0694585 -0.155 0.12882 255 128 0
0.0778654 -0.155 0.017005 255 128 0
-0.00956813 -0.155 0.026899 255 128 0
0.0237025 -0.155 0.214121 255 128 0
0.0656765 -0.155 0.180329 255 128 0
-0.099731 -0.155 0.0223159 255 128 0
-0.0580202 -0.155 0.0536113 255 128 0
0.0736618 -0.155 0.150389 255 128 0
0.0147699 -0.155 0.0630748 255 128 0
-0.0673122 -0.155 0.0525563 255 128 0
-0.0178045 -0.155 0.199348 255 128 0
0.0702464 -0.155 0.0715037 255 128 0
-0.0227493 -0.155 0.0791074 255 128 0
-0.0134216 -0.155 0.214042 255 128 0
0.0552003 -0.155 0.22228 255 128 0
0.0746513 -0.155 0.0216335 255 128 0
0.0585842 -0.155 0.209765 255 128 0
0.0460755 -0.155 0.198601 255 128 0
0.00459713 -0.155 0.0787262 255 128 0
-0.0304882 -0.155 0.158171 255 128 0
-0.0588035 -0.155 0.0527744 255 128 0
0.0941222 -0.155 0.0190042 255 128 0
-0.0451952 -0.155 0.0469843 255 128 0
0.00272895 -0.155 0.169906 255 128 0
0.0573466 -0.155 0.00489879 255 128 0
-0.038396 -0.155 0.160833 255 128 0
0.0830813 -0.155 0.19769 255 128 0
-0.0569939 -0.155 0.0268069 255 128 0
-0.0834188 -0.155 0.215223 255 128 0
0.0484065 -0.155 0.217156 255 128 0
-0.0924132 -0.155 0.196454 255 128 0
0.0399366 -0.155 0.0552003 255 128 0
0.0556054 -0.155 0.189893 255 128 0
0.0320335 -0.155 0.0396045 255 128 0
0.0872251 -0.155 0.188424 255 128 0
0.0315125 -0.155 0.228667 255 128 0
0.0299103 -0.155 0.0237262 255 128 0
0.0388695 -0.155 0.248293 255 128 0
-0.0385551 -0.155 0.1926 255 128 0
0.0448224 -0.155 0.125415 255 128 0
0.0522322 -0.155 0.0111138 255 128 0
0.0888886 -0.155 0.190704 255 128 0
0.0802006 -0.155 0.156434 255 128 0
0.0710307 -0.155 0.00815398 255 128 0
0.07009 -0.155 0.240298 255 128 0
-0.0386293 -0.155 0.0924866 255 128 0
-0.0262294 -0.155 0.117608 255 128 0
0.0591222 -0.155 0.219856 255 128 0
-0.00956976 -0.155 0.00396188 255 128 0
0.0649652 -0.155 0.133413 255 128 0
0.0232145 -0.155 0.0900766 255 128 0
0.0877211 -0.155 0.00251889 255 128 0
-0.0269831 -0.155 0.194929 255 128 0
-0.0901479 -0.155 0.202039 255 128 0
0.0120495 -0.155 0.137156 255 128 0
-0.0562845 -0.155 0.189339 255 128 0
-0.0501272 -0.155 0.20541 255 128 0
0.0471021 -0.155 0.0292814 255 128 0
-0.0728088 -0.155 0.0529874 255 128 0
-0.00362129 -0.155 0.144691 255 128 0
0.0770105 -0.155 0.0120338 255 128 0
0.0222204 -0.155 0.163081 255 128 0
0.0961248 -0.155 0.0539952 255 128 0
0.0421477 -0.155 0.168438 255 128 0
0.00120941 -0.155 0.216646 255 128 0
-0.0568877 -0.155 0.23493 255 128 0
-0.0257045 -0.155 0.204544 255 128 0
-0.0219297 -0.155 0.0521807 255 128 0
0.00948997 -0.155 0.079764 255 128 0
0.0766135 -0.155 0.170215 255 128 0
0.00872525 -0.155 0.10114 255 128 0
0.0805261 -0.155 0.238586 255 128 0
-0.0848902 -0.155 0.227274 255 128 0
0.0221897 -0.155 0.211805 255 128 0
0.0219836 -0.155 0.0858723 255 128 0
0.0579604 -0.155 0.0163129 255 128 0
-0.0820258 -0.155 0.190907 255 128 0
-0.00723619 -0.155 0.247538 255 128 0
0.0371849 -0.155 0.186991 255 128 0
0.0594275 -0.155 0.169688 255 128 0
-0.0916099 -0.155 0.217632 255 128 0
0.0603388 -0.155 0.140109 255 128 0
-0.00381843 -0.155 0.238247 255 128 0
-0.0832358 -0.155 0.113782 255 128 0
-0.0249138 -0.155 0.132545 255 128 0
0.0161018 -0.155 0.031498 255 128 0
0.00844055 -0.155 0.0382795 255 128 0
0.0333197 -0.155 0.194913 255 128 0
-0.0428041 -0.155 0.0893466 255 128 0
-0.0881309 -0.155 0.131628 255 128 0
-0.0458754 -0.155 0.142555 255 128 0
-0.0415377 -0.155 0.140229 255 128 0
-0.0897145 -0.155 0.104993 255 128 0
-0.078491 -0.155 0.0831434 255 128 0
0.0578674 -0.155 0.164395 255 128 0
0.0638947 -0.155 0.137623 255 128 0
0.0367822 -0.155 0.174291 255 128 0
-0.0635919 -0.155 0.127873 255 128 0
-0.0650394 -0.155 0.170676 255 128 0
-0.0745827 -0.155 0.03133 255 128 0
-0.0915157 -0.155 0.231966 255 128 0
0.0158916 -0.155 0.188701 255 128 0
0.095103 -0.155 0.0357927 255 128 0
0.0809206 -0.155 0.174113 255 128 0
-0.088249 -0.155 0.152578 255 128 0
-0.0572471 -0.155 0.105155 255 128 0
0.0336197 -0.155 0.0457231 255 128 0
0.008235 -0.155 0.0361095 255 128 0
-0.00611238 -0.155 0.0905646 255 128 0
0.00478832 -0.155 0.0813719 255 128 0
-0.090258 -0.155 0.225713 255 128 0
0.00794517 -0.155 0.0777659 255 128 0
-0.016835 -0.155 0.209662 255 128 0
-0.098994 -0.155 0.160416 255 128 0
0.0670162 -0.155 0.144236 255 128 0
-0.0150568 -0.155 0.221791 255 128 0
-0.0430655 -0.155 0.0773417 255 128 0
-0.0447675 -0.155 0.0416405 255 128 0
0.00624425 -0.155 0.00956552 255 128 0
-0.0032573 -0.155 0.248266 255 128 0
0.0925469 -0.155 0.06746 255 128 0
0.0595032 -0.155 0.18796 255 128 0
0.05791 -0.155 0.197159 255 128 0
0.0547624 -0.155 0.000236324 255 128 0
0.0380798 -0.155 0.223238 255 128 0
0.0798561 -0.155 0.199201 255 128 0
-0.0986662 -0.155 0.092304 255 128 0
0.0735192 -0.155 0.137597 255 128 0
-0.00465877 -0.155 0.0637177 255 128 0
0.0197529 -0.155 0.160846 255 128 0
-0.0893242 -0.155 0.0354483 255 128 0
-0.060241 -0.155 0.145725 255 128 0
-0.0836425 -0.155 0.180575 255 128 0
0.0508095 -0.155 0.0299843 255 128 0
-0.0613995 -0.155 0.0995792 255 128 0
0.035223 -0.155 0.171802 255 128 0
-0.0516159 -0.155 0.0389275 255 128 0
-0.0128628 -0.155 0.124807 255 128 0
-0.0294451 -0.155 0.00247392 255 128 0
0.0220271 -0.155 0.0933987 255 128 0
0.094513 -0.155 0.162163 255 128 0
0.0773017 -0.155 0.0114205 255 128 0
-0.0645328 -0.155 0.216035 255 128 0
-0.0161973 -0.155 0.201396 255 128 0
0.0874141 -0.155 0.154758 255 128 0
-0.0451848 -0.155 0.014492 255 128 0
0.0240281 -0.155 0.209939 255 128 0
-0.0249283 -0.155 0.105307 255 128 0
0.0375653 -0.155 0.0324852 255 128 0
-0.0579995 -0.155 0.111004 255 128 0
0.0827469 -0.155 0.109922 255 128 0
-0.00661653 -0.155 0.0274842 255 128 0
0.085538 -0.155 0.0128318 255 128 0
-0.0928233 -0.155 0.170105 255 128 0
-0.0999081 -0.155 0.199305 255 128 0
-0.00828877 -0.155 0.0203738 255 128 0
-0.0900379 -0.155 0.2007 255 128 0
0.0463661 -0.155 0.130059 255 128 0
-0.0167319 -0.155 0.0404618 255 128 0
0.0209121 -0.155 0.227481 255 128 0
0.0462814 -0.155 0.0279508 255 128 0
0.01857 -0.155 0.23401 255 128 0
-0.0989271 -0.155 0.150635 255 128 0
0.0985558 -0.155 0.182657 255 128 0
0.0343119 -0.155 0.0743792 255 128 0
0.0191321 -0.155 0.200065 255 128 0
0.0663415 -0.155 0.00119139 255 128 0
-0.0112666 -0.155 0.240833 255 128 0
0.0057464 -0.155 0.181209 255 128 0
-0.074009 -0.155 0.0398662 255 128 0
-0.0260922 -0.155 0.0176619 255 128 0
0.0824446 -0.155 0.193292 255 128 0
-0.0808048 -0.155 0.0281874 255 128 0
-0.0791435 -0.155 0.00836608 255 128 0
0.098464 -0.155 0.0545938 255 128 0
-0.0329344 -0.155 0.107597 255 128 0
-0.0591993 -0.155 0.211015 255 128 0
0.0438633 -0.155 0.0782153 255 128 0
0.0933012 -0.155 0.223324 255 128 0
0.018068 -0.155 0.0550099 255 128 0
0.0160049 -0.155 0.190398 255 128 0
0.0482145 -0.155 0.108713 255 128 0
-0.0767008 -0.155 0.130682 255 128 0
0.0463316 -0.155 0.196721 255 128 0
0.0373761 -0.155 0.067595 255 128 0
0.0410544 -0.155 0.168264 255 128 0
-0.0669664 -0.155 0.17712 255 128 0
0.0124119 -0.155 0.238321 255 128 0
-0.0413828 -0.155 0.156553 255 128 0
-0.0936426 -0.155 0.248407 255 128 0
0.0599064 -0.155 0.131932 255 128 0
0.0971544 -0.155 0.2089 255 128 0
0.00263956 -0.155 0.239163 255 128 0
0.0571475 -0.155 0.0802708 255 128 0
-0.0424697 -0.155 0.0323115 255 128 0
0.0716783 -0.155 0.234344 255 128 0
0.0305236 -0.155 0.111772 255 128 0
0.0423524 -0.155 0.210486 255 128 0
-0.0500104 -0.155 0.065357 255 128 0
-0.00834404 -0.155 0.107396 255 128 0
-0.0777621 -0.155 0.231589 255 128 0
0.0024224 -0.155 0.079585 255 128 0
-0.0803067 -0.155 0.0540614 255 128 0
-0.00603808 -0.155 0.243491 255 128 0
0.0744145 -0.155 0.247119 255 128 0
-0.0607979 -0.155 0.0265508 255 128 0
-0.0700978 -0.155 0.216034 255 128 0
0.0132416 -0.155 0.0215018 255 128 0
-0.0569623 -0.155 0.172796 255 128 0
-0.00151496 -0.155 0.210792 255 128 0
0.0336038 -0.155 0.168353 255 128 0
0.08511 -0.155 0.185994 255 128 0
0.00819355 -0.155 0.202911 255 128 0
-0.0180936 -0.155 0.125205 255 128 0
-0.0605123 -0.155 0.112752 255 128 0
0.0374812 -0.155 0.00739471 255 128 0
-0.0170948 -0.155 0.0793305 255 128 0
0.0550226 -0.155 0.0118721 255 128 0
0.0518885 -0.155 0.164479 255 128 0
-0.0607371 -0.155 0.0378555 255 128 0
-0.0239469 -0.155 0.116936 255 128 0
-0.0175276 -0.155 0.140084 255 128 0
-0.041143 -0.155 0.220597 255 128 0
-0.0676931 -0.155 0.0191535 255 128 0
-0.0340976 -0.155 0.0777923 255 128 0
0.0591966 -0.155 0.032868 255 128 0
0.0914715 -0.155 0.10043 255 128 0
-0.0252592 -0.155 0.184394 255 128 0
0.022973 -0.155 0.0841718 255 128 0
0.0810327 -0.155 0.11194 255 128 0
0.0355831 -0.155 0.0306465 255 128 0
-0.0193445 -0.155 0.194591 255 128 0
-0.0108365 -0.155 0.0931955 255 128 0
0.00997741 -0.155 0.211611 255 128 0
0.0308895 -0.155 0.00329971 255 128 0
-0.0580109 -0.155 0.0723319 255 128 0
0.000465669 -0.155 0.215378 255 128 0
0.00114788 -0.155 0.0211808 255 128 0
0.0223039 -0.155 0.0208159 255 128 0
0.046607 -0.155 0.136086 255 128 0
-0.0220041 -0.155 0.0825013 255 128 0
0.0691784 -0.155 0.131948 255 128 0
0.0257095 -0.155 0.234706 255 128 0
0.00673613 -0.155 0.185087 255 128 0
0.0748416 -0.155 0.163746 255 128 0
-0.0485704 -0.155 0.0506054 255 128 0
0.0628092 -0.155 0.117947 255 128 0
-0.0695003 -0.155 0.0224165 255 128 0
-0.0644716 -0.155 0.247528 255 128 0
0.0724434 -0.155 0.0261295 255 128 0
-0.0309696 -0.155 0.0757838 255 128 0
-0.0704711 -0.155 0.10637 255 128 0
-0.0406632 -0.155 0.207477 255 128 0
-0.0460816 -0.155 0.0884279 255 128 0
-0.0585046 -0.155 0.13553 255 128 0
-0.0688434 -0.155 0.22781 255 128 0
-0.0186016 -0.155 0.247551 255 128 0
0.077563 -0.155 0.0720165 255 128 0
0.0334628 -0.155 0.172246 255 128 0
0.0545147 -0.155 0.0692715 255 128 0
-0.00578295 -0.155 0.0549947 255 128 0
-0.0999139 -0.155 0.0553521 255 128 0
0.0371742 -0.155 0.242151 255 128 0
-0.0474835 -0.155 0.245849 255 128 0
0.0440878 -0.155 0.00648881 255 128 0
0.0530248 -0.155 0.209015 255 128 0
0.0034909 -0.155 0.179431 255 128 0
-0.019798 -0.155 0.213607 255 128 0
-0.0698448 -0.155 0.132876 255 128 0
0.0121225 -0.155 0.145337 255 128 0
-0.0798324 -0.155 0.231248 255 128 0
0.00029948 0.15085 0 255 128 0
-0.0159724 0.152323 0 255 128 0
0.0173219 0.151618 0 255 128 0
0.0588187 0.146598 0 255 128 0
0.0451383 0.15341 0 255 128 0
-0.0826109 0.15295 0 255 128 0
0.0565404 0.150424 0 255 128 0
-0.0439377 0.151719 0 255 128 0
-0.0401904 0.148406 0 255 128 0
-0.0940063 0.145841 0 255 128 0
-0.0653299 0.146264 0 255 128 0
-0.0900476 0.152443 0 255 128 0
-0.0658516 0.154234 0 255 128 0
0.0874621 0.151287 0 255 128 0
0.057612 0.148228 0 255 128 0
0.0359394 0.149503 0 255 128 0
0.0844121 0.149633 0 255 128 0
-0.00205074 0.154332 0 255 128 0
-0.00151238 0.145696 0 255 128 0
-0.0719979 0.152254 0 255 128 0
-0.0482851 0.145296 0.25 255 128 0
0.0643774 0.148985 0.25 255 128 0
-0.0885669 0.154531 0.25 255 128 0
-0.0533414 0.152643 0.25 255 128 0
-0.0328895 0.149058 0.25 255 128 0
0.0727411 0.15036 0.25 255 128 0
-0.0674324 0.147858 0.25 255 128 0
0.0593666 0.153094 0.25 255 128 0
-0.00854873 0.147334 0.25 255 128 0
-0.0998077 0.14998 0.25 255 128 0
0.0261283 0.152713 0.25 255 128 0
0.00790743 0.152668 0.25 255 128 0
-0.0859543 0.152158 0.25 255 128 0
0.0213049 0.14788 0.25 255 128 0
-0.0051518 0.145657 0.25 255 128 0
-0.0748651 0.147093 0.25 255 128 0
-0.0136621 0.150372 0.25 255 128 0
0.0452804 0.149448 0.25 255 128 0
-0.00582632 0.150021 0.25 255 128 0
-0.0381056 0.153291 0.25 255 128 0
-0.1 0.148741 0.157981 255 128 0
-0.1 0.154299 0.148259 255 128 0
-0.1 0.147067 0.154524 255 128 0
-0.1 0.1519 0.0424562 255 128 0
-0.1 0.153491 0.179432 255 128 0
-0.1 0.149147 0.119321 255 128 0
-0.1 0.147988 0.0340331 255 128 0
-0.1 0.148694 0.0173596 255 128 0
-0.1 0.146885 0.173347 255 128 0
-0.1 0.1451 0.12916 255 128 0
-0.1 0.14547 0.0148544 255 128 0
-0.1 0.154119 0.195038 255 128 0
-0.1 0.154847 0.0824832 255 128 0
-0.1 0.145992 0.112386 255 128 0
-0.1 0.151923 0.202873 255 128 0
-0.1 0.146778 0.223566 255 128 0
-0.1 0.154912 0.0118382 255 128 0
-0.1 0.145723 0.121272 255 128 0
-0.1 0.150138 0.062627 255 128 0
-0.1 0.153345 0.12018 255 128 0
-0.1 0.148235 0.204556 255 128 0
-0.1 0.146349 0.157794 255 128 0
-0.1 0.148813 0.246142 255 128 0
-0.1 0.147263 0.144486 255 128 0
-0.1 0.148646 0.156911 255 128 0
0.1 0.149081 0.155944 255 128 0
0.1 0.149089 0.158952 255 128 0
0.1 0.151136 0.106131 255 128 0
0.1 0.145097 0.0940437 255 128 0
0.1 0.154165 0.0487291 255 128 0
0.1 0.145522 0.0430881 255 128 0
0.1 0.148515 0.107739 255 128 0
0.1 0.154525 0.0270004 255 128 0
0.1 0.147865 0.068341 255 128 0
0.1 0.146529 0.0568936 255 128 0
0.1 0.153845 0.0161305 255 128 0
0.1 0.149011 0.211582 255 128 0
0.1 0.150149 0.0128592 255 128 0
0.1 0.145031 0.122896 255 128 0
0.1 0.151568 0.226011 255 128 0
0.1 0.154778 0.21998 255 128 0
0.1 0.14847 0.249029 255 128 0
0.1 0.151104 0.162498 255 128 0
0.1 0.150766 0.119192 255 128 0
0.1 0.154753 0.0854662 255 128 0
0.1 0.153931 0.195271 255 128 0
0.1 0.14783 0.0841333 255 128 0
0.1 0.146291 0.113236 255 128 0
0.1 0.154772 0.23374 255 128 0
0.1 0.149631 0.0717964 255 128 0
-0.0664411 0.155 0.0370579 255 128 0
-0.0292228 0.155 0.218965 255 128 0
-0.00765066 0.155 0.0812038 255 128 0
0.0252014 0.155 0.239643 255 128 0
-0.0148 0.155 0.145381 255 128 0
0.0742782 0.155 0.147271 255 128 0
-0.0861416 0.155 0.119768 255 128 0
0.0666271 0.155 0.151959 255 128 0
0.0696227 0.155 0.0544305 255 128 0
0.0706608 0.155 0.0986444 255 128 0
-0.0711701 0.155 0.0427761 255 128 0
-0.0416933 0.155 0.0375647 255 128 0
0.0674689 0.155 0.103466 255 128 0
-0.0142895 0.155 0.0750234 255 128 0
0.0953756 0.155 0.0872736 255 128 0
-0.045311 0.155 0.225205 255 128 0
-0.037017 0.155 0.035934 255 128 0
0.0571908 0.155 0.14407 255 128 0
0.0248218 0.155 0.240958 255 128 0
-0.0711254 0.155 0.0369153 255 128 0
-0.096585 0.155 0.248397 255 128 0
-0.0632903 0.155 0.0760423 255 128 0
0.0832666 0.155 0.137887 255 128 0
-0.0780929 0.155 0.0317253 255 128 0
-0.0583304 0.155 0.0159777 255 128 0
0.0992035 0.155 0.131058 255 128 0
0.0608762 0.155 0.191486 255 128 0
-0.0178128 0.155 0.143977 255 128 0
0.0539972 0.155 0.103427 255 128 0
0.0706917 0.155 0.0128406 255 128 0
0.0589486 0.155 0.0040462 255 128 0
0.0624434 0.155 0.0253213 255 128 0
0.0185549 0.155 0.148781 255 128 0
-0.040387 0.155 0.194373 255 128 0
-0.0640333 0.155 0.147983 255 128 0
-0.0421134 0.155 0.141776 255 128 0
-0.00315598 0.155 0.0958718 255 128 0
-0.0181246 0.155 0.167913 255 128 0
-0.0376715 0.155 0.0777558 255 128 0
0.0518219 0.155 0.0986626 255 128 0
-0.00479034 0.155 0.161354 255 128 0
-0.0824381 0.155 0.184067 255 128 0
0.00322168 0.155 0.243987 255 128 0
0.0492848 0.155 0.0967623 255 128 0
-0.0410893 0.155 0.0209275 255 128 0
0.0153073 0.155 0.215791 255 128 0
-0.0527522 0.155 0.127594 255 128 0
-0.0411746 0.155 0.191141 255 128 0
0.0860586 0.155 0.238307 255 128 0
0.0435912 0.155 0.247981 255 128 0
0.0697651 0.155 0.159709 255 128 0
0.0123759 0.155 0.245659 255 128 0
-0.0465687 0.155 0.0579364 255 128 0
0.016496 0.155 0.156893 255 128 0
0.00823995 0.155 0.117342 255 128 0
0.0245324 0.155 0.228246 255 128 0
0.0826367 0.155 0.108402 255 128 0
-0.0650686 0.155 0.187779 255 128 0
-0.075995 0.155 0.0738053 255 128 0
-0.0483316 0.155 0.124933 255 128 0
-0.00930565 0.155 0.142019 255 128 0
-0.0461746 0.155 0.0767694 255 128 0
0.048646 0.155 0.191598 255 128 0
0.00159388 0.155 0.0627856 255 128 0
0.0136499 0.155 0.227529 255 128 0
-0.0923055 0.155 0.229487 255 128 0
0.0236359 0.155 0.0416582 255 128 0
-0.0257282 0.155 0.173385 255 128 0
0.0617697 0.155 0.231738 255 128 0
-0.0945967 0.155 0.170544 255 128 0
0.0962811 0.155 0.230507 255 128 0
0.00962988 0.155 0.125921 255 128 0
-0.0124723 0.155 0.153148 255 128 0
-0.0345666 0.155 0.081862 255 128 0
0.0387544 0.155 0.158973 255 128 0
0.0284376 0.155 0.112126 255 128 0
-0.00578668 0.155 0.032303 255 128 0
0.0893387 0.155 0.146148 255 128 0
-0.0927848 0.155 0.188013 255 128 0
0.0187313 0.155 0.045012 255 128 0
-0.0357998 0.155 0.0793093 255 128 0
0.0616879 0.155 0.208806 255 128 0
-0.0250499 0.155 0.193107 255 128 0
-0.0930433 0.155 0.15345 255 128 0
0.0983586 0.155 0.144261 255 128 0
-0.0932704 0.155 0.061938 255 128 0
-0.0396076 0.155 0.0823112 255 128 0
-0.0466491 0.155 0.153339 255 128 0
0.0540101 0.155 0.0622807 255 128 0
-0.0160657 0.155 0.0421053 255 128 0
0.0353882 0.155 0.192412 255 128 0
0.0569759 0.155 0.100641 255 128 0
-0.0702831 0.155 0.20111 255 128 0
0.0425159 0.155 0.200483 255 128 0
-0.0741031 0.155 0.0762282 255 128 0
0.071747 0.155 0.186819 255 128 0
-0.087901 0.155 0.213055 255 128 0
-0.082967 0.155 0.0230305 255 128 0
0.00641472 0.155 0.00678614 255 128 0
0.0114451 0.155 0.0437371 255 128 0
0.0233264 0.155 0.108624 255 128 0
-0.00858236 0.155 0.209736 255 128 0
-0.0552195 0.155 0.153397 255 128 0
0.0389565 0.155 0.0235087 255 128 0
-0.0182377 0.155 0.125305 255 128 0
-0.0330329 0.155 0.105159 255 128 0
0.0638404 0.155 0.0243679 255 128 0
0.0316606 0.155 0.217279 255 128 0
-0.0721493 0.155 0.0549238 255 128 0
0.0809185 0.155 0.113676 255 128 0
0.0358985 0.155 0.0232304 255 128 0
-0.0149116 0.155 0.0887482 255 128 0
0.0146651 0.155 0.234445 255 128 0
0.0944084 0.155 0.13378 255 128 0
-0.00246925 0.155 0.126426 255 128 0
-0.0629211 0.155 0.0086464 255 128 0
-0.0375365 0.155 0.241911 255 128 0
-0.0786106 0.155 0.187742 255 128 0
-0.0505819 0.155 0.157673 255 128 0
-0.0627544 0.155 0.215693 255 128 0
0.035715 0.155 0.0234015 255 128 0
0.0609537 0.155 0.217495 255 128 0
0.0474756 0.155 0.0826342 255 128 0
-0.00355252 0.155 0.196448 255 128 0
-0.0802474 0.155 0.190231 255 128 0
-0.0676222 0.155 0.170975 255 128 0
0.0330126 0.155 0.232425 255 128 0
0.0974969 0.155 0.185533 255 128 0
-0.0689428 0.155 0.14467 255 128 0
0.0131232 0.155 0.128247 255 128 0
0.0593022 0.155 0.0783108 255 128 0
-0.0686849 0.155 0.0907684 255 128 0
-0.0413721 0.155 0.0752361 255 128 0
0.087428 0.155 0.0591272 255 128 0
0.0981932 0.155 0.0697949 255 128 0
0.0217502 0.155 0.235346 255 128 0
0.0379996 0.155 0.0390349 255 128 0
0.074158 0.155 0.00250926 255 128 0
0.0417999 0.155 0.2428 255 128 0
0.000548779 0.155 0.00501863 255 128 0
0.0933756 0.155 0.0606818 255 128 0
-0.0468892 0.155 0.0982403 255 128 0
0.0386153 0.155 0.0424792 255 128 0
0.0480408 0.155 0.126305 255 128 0
-0.0205902 0.155 0.211167 255 128 0
-0.0947563 0.155 0.0944937 255 128 0
0.0417805 0.155 0.0932692 255 128 0
0.017291 0.155 0.191191 255 128 0
0.00817913 0.155 0.0979618 255 128 0
0.0373679 0.155 0.206841 255 128 0
-0.0292962 0.155 0.181041 255 128 0
0.0463066 0.155 0.103769 255 128 0
0.040377 0.155 0.038262 255 128 0
0.0698179 0.155 0.202338 255 128 0
-0.0690385 0.155 0.174359 255 128 0
-0.0459129 0.155 0.172576 255 128 0
-0.0115614 0.155 0.242855 255 128 0
0.0066405 0.155 0.134777 255 128 0
-0.0827037 0.155 0.114828 255 128 0
-0.0929802 0.155 0.17142 255 128 0
-0.0544118 0.155 0.115134 255 128 0
-0.0971724 0.155 0.247518 255 128 0
0.0400809 0.155 0.24735 255 128 0
-0.00227443 0.155 0.0691881 255 128 0
-0.0560982 0.155 0.0909744 255 128 0
-0.0258741 0.155 0.0980699 255 128 0
-0.0611187 0.155 0.0212139 255 128 0
-0.0849221 0.155 0.0384146 255 128 0
-0.0584349 0.155 0.0606386 255 128 0
-0.0459629 0.155 0.106042 255 128 0
0.0156781 0.155 0.0850382 255 128 0
0.0479316 0.155 0.164507 255 128 0
-0.0952157 0.155 0.0721445 255 128 0
0.0896174 0.155 0.0997981 255 128 0
-0.0882501 0.155 0.0133835 255 128 0
-0.0531216 0.155 0.0195805 255 128 0
0.0671673 0.155 0.077784 255 128 0
-0.0920077 0.155 0.111998 255 128 0
0.0558493 0.155 0.125705 255 128 0
-0.0431074 0.155 0.186069 255 128 0
-0.0861613 0.155 0.147659 255 128 0
0.0541889 0.155 0.144817 255 128 0
0.0226405 0.155 0.107466 255 128 0
-0.000906217 0.155 0.0377832 255 128 0
-0.0771122 0.155 0.0863335 255 128 0
0.0307914 0.155 0.245984 255 128 0
-0.0359473 0.155 0.11375 255 128 0
0.00295634 0.155 0.243675 255 128 0
-0.0620727 0.155 0.234799 255 128 0
-0.0320243 0.155 0.180737 255 128 0
0.0383252 0.155 0.10201 255 128 0
-0.0541379 0.155 0.153429 255 128 0
0.0250893 0.155 0.227905 255 128 0
0.0643572 0.155 0.214422 255 128 0
0.0844487 0.155 0.173 255 128 0
0.0835806 0.155 0.0119437 255 128 0
0.00762297 0.155 0.147183 255 128 0
-0.011164 0.155 0.151467 255 128 0
-0.0777541 0.155 0.161922 255 128 0
-0.013477 0.155 0.202863 255 128 0
0.0234447 0.155 0.0280776 255 128 0
-0.030862 0.155 0.0167819 255 128 0
-0.0426309 0.155 0.19026 255 128 0
0.0912943 0.155 0.0498306 255 128 0
-0.0720889 0.155 0.12349 255 128 0
0.053106 0.155 0.214034 255 128 0
-0.0247655 0.155 0.117809 255 128 0
0.00623053 0.155 0.0054369 255 128 0
-0.0929769 0.155 0.155082 255 128 0
0.0818316 0.155 0.0990864 255 128 0
-0.0686385 0.155 0.136293 255 128 0
-0.0145121 0.155 0.241691 255 128 0
-0.0841582 0.155 0.183001 255 128 0
-0.0104561 0.155 0.130158 255 128 0
-0.0810715 0.155 0.063556 255 128 0
-0.0744078 0.155 0.120083 255 128 0
-0.0431335 0.155 0.0997316 255 128 0
-0.0607029 0.155 0.213869 255 128 0
-0.044029 0.155 0.189669 255 128 0
0.0049523 0.155 0.0763545 255 128 0
-0.0650886 0.155 0.0503734 255 128 0
-0.0442086 0.155 0.065071 255 128 0
0.0379613 0.155 0.223409 255 128 0
-0.0385747 0.155 0.0257746 255 128 0
0.0894268 0.155 0.140816 255 128 0
-0.0109333 0.155 0.0734265 255 128 0
0.0376586 0.155 0.121092 255 128 0
0.00934195 0.155 0.100641 255 128 0
0.017116 0.155 0.0585061 255 128 0
0.0788812 0.155 0.177418 255 128 0
-0.0616313 0.155 0.163567 255 128 0
0.0113482 0.155 0.135562 255 128 0
-0.0649439 0.155 0.0330235 255 128 0
0.0384118 0.155 0.229973 255 128 0
0.0110801 0.155 0.0531746 255 128 0
-0.0117208 0.155 0.0232563 255 128 0
-0.0358245 0.155 0.242326 255 128 0
-0.0937261 0.155 0.0290261 255 128 0
-0.0165978 0.155 0.0102027 255 128 0
-0.06468 0.155 0.0734396 255 128 0
0.0509003 0.155 0.11576 255 128 0
-0.0600885 0.155 0.167137 255 128 0
0.0652111 0.155 0.126116 255 128 0
-0.0122837 0.155 0.206892 255 128 0
-5.34217e-05 0.155 0.00866076 255 128 0
-0.0269215 0.155 0.219122 255 128 0
-0.0529922 0.155 0.0864573 255 128 0
-0.0270483 0.155 0.208876 255 128 0
0.0999951 0.155 0.234851 255 128 0
-0.0948271 0.155 0.121245 255 128 0
0.0665072 0.155 0.229115 255 128 0
0.0946864 0.155 0.203403 255 128 0
0.0572261 0.155 0.213161 255 128 0
0.0628786 0.155 0.177435 255 128 0
-0.0538589 0.155 0.169001 255 128 0
0.0473285 0.155 0.13268 255 128 0
0.0938183 0.155 0.0134956 255 128 0
-0.0895449 0.155 0.110544 255 128 0
0.0587876 0.155 0.104881 255 128 0
0.0872758 0.155 0.223233 255 128 0
0.00426064 0.155 0.111587 255 128 0
-0.00300222 0.155 0.0936532 255 128 0
0.0166393 0.155 0.0891109 255 128 0
0.0297147 0.155 0.0603445 255 128 0
0.089265 0.155 0.24266 255 128 0
-0.0506662 0.155 0.221035 255 128 0
0.0448846 0.155 0.0206042 255 128 0
-0.0103322 0.155 0.0276495 255 128 0
0.0740221 0.155 0.139115 255 128 0
-0.0788068 0.155 0.0532115 255 128 0
-0.0584229 0.155 0.178563 255 128 0
0.0912219 0.155 0.0981631 255 128 0
-0.0002938 0.155 0.159298 255 128 0
0.0842336 0.155 0.0789059 255 128 0
0.0374898 0.155 0.240977 255 128 0
-0.0301036 0.155 0.031064 255 128 0
0.0294058 0.155 0.0615626 255 128 0
0.0494666 0.155 0.021474 255 128 0
-0.016186 0.155 0.0671273 255 128 0
0.0396263 0.155 0.230013 255 128 0
0.0458994 0.155 0.197104 255 128 0
-0.0100976 0.155 0.222393 255 128 0
-0.0554874 0.155 0.126145 255 128 0
0.0481776 0.155 0.128792 255 128 0
0.0664363 0.155 0.23967 255 128 0
-0.0417881 0.155 0.0251483 255 128 0
0.0817876 0.155 0.0177231 255 128 0
0.0430765 0.155 0.159544 255 128 0
0.076575 0.155 0.136837 255 128 0
-0.0939376 0.155 0.239916 255 128 0
0.0199139 0.155 0.0857419 255 128 0
0.0232215 0.155 0.248185 255 128 0
-0.0947842 0.155 0.163343 255 128 0
0.0217038 0.155 0.158148 255 128 0
0.0480105 0.155 0.11956 255 128 0
-0.0173982 0.155 0.134926 255 128 0
0.0890251 0.155 0.21822 255 128 0
0.0699025 0.155 0.0800197 255 128 0
0.0104345 0.155 0.0969789 255 128 0
0.0444104 0.155 0.229841 255 128 0
0.0598612 0.155 0.0298436 255 128 0
-0.0844373 0.155 0.134873 255 128 0
-0.0607903 0.155 0.128139 255 128 0
-0.0735034 0.155 0.0974043 255 128 0
0.0722262 0.155 0.0858761 255 128 0
-0.0871063 0.155 0.199666 255 128 0
-0.00127972 0.155 0.0663696 255 128 0
-0.0455183 0.155 0.177932 255 128 0
-0.0699259 0.155 0.246079 255 128 0
0.076794 0.155 0.134314 255 128 0
0.0740236 0.155 0.0707234 255 128 0
0.0402963 0.155 0.232259 255 128 0
0.0985675 0.155 0.19767 255 128 0
-0.00654435 0.155 0.236881 255 128 0
-0.0786307 0.155 0.0638827 255 128 0
0.00375333 0.155 0.061376 255 128 0
0.0594806 0.155 0.199421 255 128 0
-0.0747154 0.155 0.116929 255 128 0
0.0650966 0.155 0.140023 255 128 0
-0.0850982 0.155 0.110689 255 128 0
0.0928599 0.155 0.01227 255 128 0
0.00565712 0.155 0.0816345 255 128 0
0.00832097 0.155 0.0162355 255 128 0
0.0460786 0.155 0.0193486 255 128 0
-0.0657296 0.155 0.130442 255 128 0
0.028118 0.155 0.133346 255 128 0
0.0353611 0.155 0.150125 255 128 0
-0.0691191 0.155 0.135289 255 128 0
0.0242023 0.155 0.128189 255 128 0
-0.0916491 0.155 0.0284428 255 128 0
-0.0774863 0.155 0.0453969 255 128 0
-0.0120759 0.155 0.0602845 255 128 0
-0.00754841 0.155 0.0125448 255 128 0
0.072524 0.155 0.158546 255 128 0
-0.0340004 0.155 0.0994868 255 128 0
-0.0405103 0.155 0.173707 255 128 0
-0.0832046 0.155 0.106378 255 128 0
0.0588397 0.155 0.100736 255 128 0
-0.00229993 0.155 0.121042 255 128 0
-0.0189477 0.155 0.137706 255 128 0
-0.0641123 0.155 0.176961 255 128 0
0.00742862 0.155 0.170336 255 128 0
0.0215488 0.155 0.0951441 255 128 0
0.0611089 0.155 0.0240077 255 128 0
0.0113688 0.155 0.10733 255 128 0
-0.037241 0.155 0.216551 255 128 0
-0.0078088 0.155 0.230824 255 128 0
0.0476056 0.155 0.0934623 255 128 0
-0.0943498 0.155 0.245752 255 128 0
-0.0924786 0.155 0.146538 255 128 0
-0.00258903 0.155 0.063446 255 128 0
-0.0895662 0.155 0.136803 255 128 0
0.00994125 0.155 0.138091 255 128 0
-0.0583935 0.155 0.195236 255 128 0
0.0961293 0.155 0.139247 255 128 0
0.0634098 0.155 0.12805 255 128 0
0.0783517 0.155 0.103999 255 128 0
-0.0605972 0.155 0.212541 255 128 0
-0.0604587 0.155 0.168856 255 128 0
-0.00229295 0.155 0.177933 255 128 0
-0.00559832 0.155 0.213018 255 128 0
0.0305005 0.155 0.204396 255 128 0
-0.0585926 0.155 0.0757517 255 128 0
-0.0950069 0.155 0.221131 255 128 0
0.0921375 0.155 0.0506898 255 128 0
-0.0203895 0.155 0.219337 255 128 0
-0.0881038 0.155 0.0111224 255 128 0
-0.0386542 0.155 0.164637 255 128 0
0.0741148 0.155 0.190408 255 128 0
-0.069204 0.155 0.0845713 255 128 0
0.00307511 0.155 0.0146981 255 128 0
-0.0843754 0.155 0.128364 255 128 0
-0.0483361 0.155 0.0131432 255 128 0
-0.0100627 0.155 0.200447 255 128 0
0.0292527 0.155 0.228046 255 128 0
-0.0617298 0.155 0.070974 255 128 0
-0.0811341 0.155 0.121322 255 128 0
0.0598122 0.155 0.21311 255 128 0
-0.000384954 0.155 0.0867639 255 128 0
0.0633279 0.155 0.094178 255 128 0
0.0499385 0.155 0.0795085 255 128 0
0.0806784 0.155 0.144198 255 128 0
-0.0561961 0.155 0.0307276 255 128 0
-0.00559375 0.155 0.0961361 255 128 0
-0.0838766 0.155 0.239898 255 128 0
-0.0163175 0.155 0.0614115 255 128 0
-0.00222174 0.155 0.0751404 255 128 0
0.079884 0.155 0.0704935 255 128 0
-0.0310162 0.155 0.19571 255 128 0
-0.0154746 0.155 0.128062 255 128 0
0.05776 0.155 0.0166138 255 128 0
0.0462295 0.155 0.068575 255 128 0
0.00747592 0.155 0.0630333 255 128 0
0.0556816 0.155 0.0632581 255 128 0
0.0201317 0.155 0.236615 255 128 0
0.0898263 0.155 0.0613383 255 128 0
0.00985701 0.155 0.231821 255 128 0
-0.0779706 0.155 0.207771 255 128 0
-0.0363409 0.155 0.212254 255 128 0
0.0519737 0.155 0.0444989 255 128 0
-0.00912123 0.155 0.0905245 255 128 0
-0.0450104 0.155 0.205264 255 128 0
-0.030743 0.155 0.0553361 255 128 0
-0.0994553 0.155 0.122282 255 128 0
0.0644836 0.155 0.0323334 255 128 0
0.0114381 0.155 0.0154571 255 128 0
0.0717728 0.155 0.148553 255 128 0
0.0462253 0.155 0.0813935 255 128 0
0.0239567 0.155 0.203082 255 128 0
-0.0167184 0.155 0.128106 255 128 0
-0.0358064 0.155 0.172911 255 128 0
-0.00716693 0.155 0.146016 255 128 0
0.026206 0.155 0.0865898 255 128 0
0.00484599 0.155 0.133206 255 128 0
-0.0882387 0.155 0.10104 255 128 0
-0.0971053 0.155 0.0988107 255 128 0
0.0367607 0.155 0.100115 255 128 0
0.0574343 0.155 0.115077 255 128 0
0.0169501 0.155 0.013218 255 128 0
-0.0838911 0.155 0.0178222 255 128 0
-0.04473 0.155 0.126891 255 128 0
0.088215 0.155 0.0341004 255 128 0
-0.0856015 0.155 0.0876903 255 128 0
-0.0330945 0.155 0.0947153 255 128 0
-0.0741386 0.155 0.0359213 255 128 0
0.0925005 0.155 0.205916 255 128 0
-0.0734007 0.155 0.222619 255 128 0
-0.054416 0.155 0.0956515 255 128 0
-0.0187486 0.155 0.192309 255 128 0
-0.0464188 0.155 0.0969268 255 128 0
0.0162422 0.155 0.242104 255 128 0
-0.00370103 0.155 0.00634202 255 128 0
0.0136023 0.155 0.0898025 255 128 0
0.0179654 0.155 0.128979 255 128 0
0.0258899 0.155 0.234084 255 128 0
-0.0608468 0.155 0.226919 255 128 0
-0.0901583 0.155 0.160157 255 128 0
-0.0282782 0.155 0.228336 255 128 0
-0.0189107 0.155 0.102579 255 128 0
-0.0925799 0.155 0.135309 255 128 0
-0.0254843 0.155 0.0150466 255 128 0
-0.0221462 0.155 0.158878 255 128 0
0.0652296 0.155 0.20952 255 128 0
-0.0458996 0.155 0.0334123 255 128 0
-0.0142175 0.155 0.145465 255 128 0
0.0998007 0.155 0.0735167 255 128 0
-0.0518476 0.155 0.0126718 255 128 0
-0.0606088 0.155 0.181743 255 128 0
-0.0516658 0.155 0.188334 255 128 0
0.0311172 0.155 0.112284 255 128 0
-0.0773589 0.155 0.0678993 255 128 0
0.00526147 0.155 0.113351 255 128 0
0.0838665 0.155 0.132114 255 128 0
0.0168945 0.155 0.0601383 255 128 0
-0.094696 0.155 0.0438437 255 128 0
-0.0337249 0.155 0.180728 255 128 0
-0.0759977 0.155 0.066429 255 128 0
-0.0364419 0.155 0.00158186 255 128 0
-0.0777588 0.155 0.145032 255 128 0
0.0789583 0.155 0.0308211 255 128 0
0.00862836 0.155 0.163875 255 128 0
0.0591451 0.155 0.123257 255 128 0
-0.0180871 0.155 0.10062 255 128 0
-0.0905455 0.155 0.154404 255 128 0
-0.0624907 0.155 0.00984385 255 128 0
-0.0469262 0.155 0.199174 255 128 0
-0.0585355 0.155 0.225492 255 128 0
0.0613242 0.155 0.115018 255 128 0
-0.0252679 0.155 0.119773 255 128 0
-0.0612692 0.155 0.102438 255 128 0
0.0638566 0.155 0.219902 255 128 0
-0.003985 0.155 0.200171 255 128 0
-0.0852732 0.155 0.0353266 255 128 0
-0.0779717 0.155 0.199529 255 128 0
-0.0897528 0.155 0.13669 255 128 0
-0.0457458 0.155 0.00907074 255 128 0
-0.0936817 0.155 0.118597 255 128 0
-0.0838706 0.155 0.184143 255 128 0
-0.028567 0.155 0.17802 255 128 0
0.0152319 0.155 0.0917911 255 128 0
-0.0959533 0.155 0.109117 255 128 0
-0.0199623 0.155 0.0139003 255 128 0
0.0645106 0.155 0.150369 255 128 0
0.0487108 0.155 0.0769288 255 128 0
0.089605 0.155 0.0126709 255 128 0
0.0487084 0.155 0.0395233 255 128 0
0.078316 0.155 0.0237222 255 128 0
-0.0704349 0.155 0.161233 255 128 0
-0.0526891 0.155 0.0541193 255 128 0
0.0913974 0.155 0.00123003 255 128 0
-0.0996825 0.155 0.0950893 255 128 0
0.0199333 0.155 0.218763 255 128 0
0.0065624 0.155 0.154651 255 128 0
-0.00487815 0.155 0.0634621 255 128 0
0.0132078 0.155 0.0212798 255 128 0
0.0299018 0.155 0.0451229 255 128 0
0.0446722 0.155 0.100969 255 128 0
0.0662521 0.155 0.0653577 255 128 0
0.0212001 0.155 0.120987 255 128 0
-0.0170831 0.155 0.148585 255 128 0
0.0135073 0.145 0.207655 255 128 0
-0.0905977 0.145 0.226631 255 128 0
-0.0428329 0.145 0.198186 255 128 0
0.0989014 0.145 0.0922923 255 128 0
-0.0646622 0.145 0.22444 255 128 0
-0.0712595 0.145 0.188337 255 128 0
0.0611152 0.145 0.168591 255 128 0
-0.0466464 0.145 0.0233935 255 128 0
0.0997787 0.145 0.244965 255 128 0
-0.0074365 0.145 0.0678575 255 128 0
-0.0798437 0.145 0.10798 255 128 0
-0.0777447 0.145 0.109399 255 128 0
0.0947077 0.145 0.161133 255 128 0
0.0796995 0.145 0.0523813 255 128 0
0.0305057 0.145 0.187379 255 128 0
0.0302957 0.145 0.0147797 255 128 0
-0.0170143 0.145 0.0126744 255 128 0
-0.0715392 0.145 0.173936 255 128 0
-0.0648569 0.145 0.129004 255 128 0
0.041357 0.145 0.0981504 255 128 0
-0.0430638 0.145 0.142778 255 128 0
-0.0707377 0.145 0.0873009 255 128 0
0.0602897 0.145 0.107668 255 128 0
0.0708223 0.145 0.207924 255 128 0
-0.0449544 0.145 0.0975968 255 128 0
-0.00922888 0.145 0.227662 255 128 0
-0.0182805 0.145 0.0664198 255 128 0
0.00055413 0.145 0.210507 255 128 0
0.0320157 0.145 0.129565 255 128 0
-0.069045 0.145 0.0345138 255 128 0
0.0823838 0.145 0.15713 255 128 0
0.0361223 0.145 0.193303 255 128 0
0.056934 0.145 0.171434 255 128 0
0.00350838 0.145 0.213905 255 128 0
-0.0938425 0.145 0.216296 255 128 0
0.00409487 0.145 0.0498895 255 128 0
-0.0917847 0.145 0.156597 255 128 0
0.0311445 0.145 0.151706 255 128 0
0.0211613 0.145 0.218398 255 128 0
0.00605591 0.145 0.0516448 255 128 0
0.0671556 0.145 0.246977 255 128 0
-0.0928194 0.145 0.2435 255 128 0
-0.0736078 0.145 0.0408241 255 128 0
0.0354981 0.145 0.193924 255 128 0
-0.0822055 0.145 0.0390457 255 128 0
-0.0997508 0.145 0.187349 255 128 0
0.020334 0.145 0.09605 255 128 0
-0.0894508 0.145 0.0495813 255 128 0
0.0316121 0.145 0.176696 255 128 0
0.0498244 0.145 0.018238 255 128 0
0.0235278 0.145 0.104467 255 128 0
-0.0587752 0.145 0.00426609 255 128 0
-0.0198642 0.145 0.00476528 255 128 0
0.020367 0.145 0.16374 255 128 0
-0.0805779 0.145 0.133371 255 128 0
0.048517 0.145 0.149665 255 128 0
0.0250696 0.145 0.199189 255 128 0
-0.00940733 0.145 0.231207 255 128 0
0.0143239 0.145 0.195413 255 128 0
-0.0472604 0.145 0.059392 255 128 0
-0.0461137 0.145 0.14317 255 128 0
0.0195943 0.145 0.0711759 255 128 0
-0.0245873 0.145 0.115 255 128 0
-0.0746202 0.145 0.117178 255 128 0
0.0843996 0.145 0.137459 255 128 0
-0.032318 0.145 0.0865101 255 128 0
0.0690676 0.145 0.126156 255 128 0
-0.0675824 0.145 0.0303574 255 128 0
0.00710805 0.145 0.0289567 255 128 0
0.05475 0.145 0.00385559 255 128 0
0.0593825 0.145 0.135749 255 128 0
-0.0924877 0.145 0.137643 255 128 0
-0.0665922 0.145 0.0168586 255 128 0
-0.0653498 0.145 0.178326 255 128 0
-0.0893896 0.145 0.158412 255 128 0
-0.0552753 0.145 0.117772 255 128 0
0.000400005 0.145 0.0440202 255 128 0
0.0543702 0.145 0.0525374 255 128 0
-0.0214723 0.145 0.0408324 255 128 0
0.0473674 0.145 0.14292 255 128 0
-0.0572196 0.145 0.0409755 255 128 0
0.0116773 0.145 0.0508118 255 128 0
-0.0411273 0.145 0.00639621 255 128 0
-0.0338536 0.145 0.0178294 255 128 0
0.0303515 0.145 0.185009 255 128 0
0.0018687 0.145 0.223826 255 128 0
-0.0644144 0.145 0.00615219 255 128 0
-0.000616608 0.145 0.00932156 255 128 0
0.0835677 0.145 0.129443 255 128 0
-0.0758344 0.145 0.0724544 255 128 0
-0.0165638 0.145 0.156098 255 128 0
-0.0596288 0.145 0.164768 255 128 0
-0.0694881 0.145 0.110627 255 128 0
-0.0620223 0.145 0.208464 255 128 0
0.0224905 0.145 0.202397 255 128 0
-0.0190606 0.145 0.037015 255 128 0
0.0299353 0.145 0.121748 255 128 0
0.0588878 0.145 0.185807 255 128 0
0.0224612 0.145 0.227751 255 128 0
-0.0840662 0.145 0.0608506 255 128 0
-0.052041 0.145 0.172883 255 128 0
0.0498093 0.145 0.0697742 255 128 0
-0.0647022 0.145 0.216264 255 128 0
0.0564423 0.145 0.205185 255 128 0
-0.00279231 0.145 0.00530483 255 128 0
-0.0561805 0.145 0.203972 255 128 0
-0.0232031 0.145 0.218819 255 128 0
-0.0085371 0.145 0.145169 255 128 0
-0.0343858 0.145 0.0999396 255 128 0
-0.0204522 0.145 0.022181 255 128 0
-0.0098531 0.145 0.210237 255 128 0
0.0866547 0.145 0.0244263 255 128 0
-0.00293521 0.145 0.0713362 255 128 0
0.0297971 0.145 0.166757 255 128 0
0.028569 0.145 0.0579634 255 128 0
-0.055659 0.145 0.0283332 255 128 0
-0.000647835 0.145 0.0946686 255 128 0
0.0800025 0.145 0.0117399 255 128 0
0.0354086 0.145 0.0583174 255 128 0
-0.0727765 0.145 0.0703933 255 128 0
-0.0207825 0.145 0.198661 255 128 0
0.0818087 0.145 0.14538 255 128 0
-0.00835806 0.145 0.102766 255 128 0
0.0602233 0.145 0.0437808 255 128 0
0.00784341 0.145 0.223147 255 128 0
0.020772 0.145 0.195909 255 128 0
-0.0687268 0.145 0.0714064 255 128 0
-0.00908187 0.145 0.059782 255 128 0
0.0337962 0.145 0.233379 255 128 0
0.0776425 0.145 0.168229 255 128 0
-0.0528488 0.145 0.045043 255 128 0
0.0840355 0.145 0.109295 255 128 0
0.0218181 0.145 0.0726566 255 128 0
0.0851633 0.145 0.164242 255 128 0
0.0877958 0.145 0.0476983 255 128 0
-0.0721105 0.145 0.0344535 255 128 0
0.018003 0.145 0.204472 255 128 0
0.065346 0.145 0.139496 255 128 0
0.0578407 0.145 0.203534 255 128 0
-0.0917202 0.145 0.229455 255 128 0
0.0131644 0.145 0.0707486 255 128 0
0.0396807 0.145 0.205892 255 128 0
-0.0405082 0.145 0.0354631 255 128 0
-0.0721904 0.145 0.109902 255 128 0
-0.0649343 0.145 0.194529 255 128 0
-0.0477849 0.145 0.0626126 255 128 0
0.0226452 0.145 0.207372 255 128 0
-0.00580218 0.145 0.163783 255 128 0
-0.0587692 0.145 0.154149 255 128 0
0.00397384 0.145 0.160389 255 128 0
-0.0529056 0.145 0.133671 255 128 0
0.0981639 0.145 0.215398 255 128 0
0.0813717 0.145 0.0430612 255 128 0
0.0212984 0.145 0.0886617 255 128 0
-0.0158147 0.145 0.06773 255 128 0
-0.0410632 0.145 0.249859 255 128 0
-0.044803 0.145 0.12506 255 128 0
-0.00168053 0.145 0.226295 255 128 0
0.0706124 0.145 0.23216 255 128 0
-0.0354767 0.145 0.244958 255 128 0
-0.0826861 0.145 0.18096 255 128 0
-0.0695816 0.145 0.19696 255 128 0
-0.0834394 0.145 0.247736 255 128 0
0.0998084 0.145 0.187831 255 128 0
-0.00437172 0.145 0.224198 255 128 0
0.0125375 0.145 0.213429 255 128 0
0.0324744 0.145 0.0765272 255 128 0
0.0258785 0.145 0.207064 255 128 0
-0.0363613 0.145 0.246532 255 128 0
-0.0133004 0.145 0.0468055 255 128 0
-0.0820769 0.145 0.0928668 255 128 0
-0.029333 0.145 0.140887 255 128 0
-0.0724522 0.145 0.156676 255 128 0
-0.0215899 0.145 0.147125 255 128 0
0.0395378 0.145 0.132738 255 128 0
0.0582589 0.145 0.127546 255 128 0
0.0266821 0.145 0.109304 255 128 0
-0.0193468 0.145 0.0131853 255 128 0
-0.0828092 0.145 0.134537 255 128 0
-0.0458217 0.145 0.0862721 255 128 0
0.02066 0.145 0.0920788 255 128 0
-0.062842 0.145 0.0945795 255 128 0
-0.0239492 0.145 0.00443788 255 128 0
-0.0524751 0.145 0.209974 255 128 0
-0.0790693 0.145 0.142542 255 128 0
-0.0245609 0.145 0.0620541 255 128 0
-0.0146243 0.145 0.0968966 255 128 0
0.08168 0.145 0.076903 255 128 0
-0.0208135 0.145 0.0948197 255 128 0
-0.0651865 0.145 0.190746 255 128 0
0.0489261 0.145 0.0920866 255 128 0
-0.0628757 0.145 0.00788157 255 128 0
-0.0335212 0.145 0.141832 255 128 0
0.0112395 0.145 0.0332021 255 128 0
0.0284535 0.145 0.0829731 255 128 0
0.078117 0.145 0.156863 255 128 0
-0.0499028 0.145 0.0394172 255 128 0
0.0569387 0.145 0.198548 255 128 0
0.0413023 0.145 0.187884 255 128 0
0.014213 0.145 0.221567 255 128 0
0.0240232 0.145 0.00134448 255 128 0
-0.0247594 0.145 0.0104781 255 128 0
0.0779763 0.145 0.165782 255 128 0
-0.0839468 0.145 0.158166 255 128 0
0.0795759 0.145 0.10494 255 128 0
-0.0645737 0.145 0.0133424 255 128 0
0.0813474 0.145 0.202941 255 128 0
0.0912174 0.145 0.228934 255 128 0
0.0487737 0.145 0.00161483 255 128 0
-0.0109159 0.145 0.12942 255 128 0
-0.00562174 0.145 0.196916 255 128 0
0.0614344 0.145 0.165409 255 128 0
-0.00239742 0.145 0.0865702 255 128 0
-0.0248358 0.145 0.0868544 255 128 0
-0.0858974 0.145 0.179733 255 128 0
0.0647746 0.145 0.242222 255 128 0
0.0699762 0.145 0.130864 255 128 0
-0.0227709 0.145 0.121739 255 128 0
0.0211111 0.145 0.00727582 255 128 0
0.0165325 0.145 0.0792326 255 128 0
0.038756 0.145 0.0660919 255 128 0
0.00521812 0.145 0.197789 255 128 0
-0.0874359 0.145 0.0407861 255 128 0
0.0618563 0.145 0.0783263 255 128 0
0.0419038 0.145 0.0996242 255 128 0
0.0774 0.145 0.05615 255 128 0
0.0150251 0.145 0.142504 255 128 0
-0.082124 0.145 0.0132413 255 128 0
0.0142659 0.145 0.160606 255 128 0
0.0913065 0.145 0.215344 255 128 0
-0.0218416 0.145 0.0981909 255 128 0
0.0862655 0.145 0.159738 255 128 0
-0.0777039 0.145 0.0882194 255 128 0
-0.0973468 0.145 0.147985 255 128 0
0.0639938 0.145 0.2319 255 128 0
0.0933296 0.145 0.0370667 255 128 0
-0.0355825 0.145 0.16745 255 128 0
0.000855544 0.145 0.131215 255 128 0
0.0656587 0.145 0.0382999 255 128 0
-0.0100612 0.145 0.110336 255 128 0
0.0185 0.145 0.201428 255 128 0
-0.0965105 0.145 0.12435 255 128 0
0.039007 0.145 0.165039 255 128 0
-0.0701694 0.145 0.121635 255 128 0
-0.0545406 0.145 0.0972042 255 128 0
-0.0149562 0.145 0.19907 255 128 0
-0.0289512 0.145 0.225023 255 128 0
-0.0833141 0.145 0.019874 255 128 0
-0.02458 0.145 0.00425353 255 128 0
0.0844246 0.145 0.159078 255 128 0
-0.0674248 0.145 0.0264001 255 128 0
0.0874273 0.145 0.116855 255 128 0
0.00916222 0.145 0.215046 255 128 0
0.0623813 0.145 0.0394532 255 128 0
0.0182575 0.145 0.193423 255 128 0
0.0206698 0.145 0.180266 255 128 0
-0.0214716 0.145 0.0340605 255 128 0
0.0142885 0.145 0.037556 255 128 0
-0.0216276 0.145 0.163505 255 128 0
0.0560697 0.145 0.13357 255 128 0
-0.0787981 0.145 0.0604326 255 128 0
-0.0122543 0.145 0.0471505 255 128 0
0.0572659 0.145 0.231447 255 128 0
-0.0973156 0.145 0.022929 255 128 0
-0.0576153 0.145 0.212414 255 128 0
-0.0932278 0.145 0.177598 255 128 0
-0.0335509 0.145 0.064427 255 128 0
0.0816438 0.145 0.0756525 255 128 0
0.0435499 0.145 0.146288 255 128 0
0.0621595 0.145 0.0532115 255 128 0
0.0519741 0.145 0.0583205 255 128 0
