ply
format ascii 1.0
comment Created by Open3D
element vertex 1452
property double x
property double y
property double z
property uchar red
property uchar green
property uchar blue
end_header
0.426384 0.01 0.279466 255 128 0
0.386035 0.01 0.234807 255 128 0
0.188067 0.01 0.667102 255 128 0
0.973227 0.01 0.719741 255 128 0
0.192598 0.01 0.527252 255 128 0
0.655717 0.01 0.653283 255 128 0
0.956266 0.01 0.473072 255 128 0
0.781874 0.01 0.128375 255 128 0
0.294625 0.01 0.677802 255 128 0
0.93053 0.01 0.522024 255 128 0
0.811606 0.01 0.633037 255 128 0
0.34161 0.01 0.980601 255 128 0
0.296092 0.01 0.115038 255 128 0
0.892941 0.01 0.146502 255 128 0
0.94559 0.01 0.413809 255 128 0
0.897953 0.01 0.272674 255 128 0
0.434504 0.01 0.444201 255 128 0
0.411139 0.01 0.0258496 255 128 0
0.326705 0.01 0.866524 255 128 0
0.581596 0.01 0.265248 255 128 0
0.593793 0.01 0.16777 255 128 0
0.826819 0.01 0.0495896 255 128 0
0.402398 0.01 0.169179 255 128 0
0.199658 0.01 0.552845 255 128 0
0.997303 0.01 0.477345 255 128 0
0.981845 0.01 0.189737 255 128 0
0.831077 0.01 0.894963 255 128 0
0.13389 0.01 0.505737 255 128 0
0.418578 0.01 0.306245 255 128 0
0.422101 0.01 0.577903 255 128 0
0.552051 0.01 0.497006 255 128 0
0.0841746 0.01 0.148634 255 128 0
0.905594 0.01 0.977824 255 128 0
0.347053 0.01 0.341793 255 128 0
0.575622 0.01 0.33058 255 128 0
0.218059 0.01 0.960863 255 128 0
0.668214 0.01 0.227121 255 128 0
0.468806 0.01 0.239603 255 128 0
0.279664 0.01 0.873233 255 128 0
0.546776 0.01 0.527724 255 128 0
0.987211 0.01 0.780155 255 128 0
0.523998 0.01 0.333093 255 128 0
0.854192 0.01 0.166724 255 128 0
0.426817 0.01 0.417655 255 128 0
0.316136 0.01 0.942668 255 128 0
0.682237 0.01 0.688389 255 128 0
0.815237 0.01 0.712708 255 128 0
0.195595 0.01 0.773914 255 128 0
0.175922 0.01 0.97727 255 128 0
0.25255 0.01 0.119024 255 128 0
0.0599445 0.01 0.0347192 255 128 0
0.0823542 0.01 0.239871 255 128 0
0.53375 0.01 0.929159 255 128 0
0.803604 0.01 0.394145 255 128 0
0.764032 0.01 0.851038 255 128 0
0.808649 0.01 0.155274 255 128 0
0.913905 0.01 0.823741 255 128 0
0.274019 0.01 0.0191663 255 128 0
0.297235 0.01 0.631135 255 128 0
0.180204 0.01 0.867424 255 128 0
0.824084 0.01 0.922192 255 128 0
0.843938 0.01 0.858846 255 128 0
0.594629 0.01 0.14765 255 128 0
0.227558 0.01 0.485335 255 128 0
0.941022 0.01 0.481467 255 128 0
0.657364 0.01 0.364197 255 128 0
0.285251 0.01 0.387633 255 128 0
0.577938 0.01 0.266301 255 128 0
0.786202 0.01 0.0308389 255 128 0
0.792581 0.01 0.394118 255 128 0
0.968582 0.01 0.40074 255 128 0
0.191359 0.01 0.500187 255 128 0
0.182321 0.01 0.855282 255 128 0
0.633905 0.01 0.7577 255 128 0
0.839494 0.01 0.871194 255 128 0
0.17926 0.01 0.483331 255 128 0
0.714658 0.01 0.25199 255 128 0
0.589037 0.01 0.587324 255 128 0
0.190704 0.01 0.597842 255 128 0
0.935015 0.01 0.981952 255 128 0
0.593512 0.01 0.145273 255 128 0
0.840119 0.01 0.103192 255 128 0
0.756413 0.01 0.0905757 255 128 0
0.454187 0.01 0.947453 255 128 0
0.353354 0.01 0.318352 255 128 0
0.927762 0.01 0.360653 255 128 0
0.651907 0.01 0.174167 255 128 0
0.915118 0.01 0.363958 255 128 0
0.22795 0.01 0.974695 255 128 0
0.880539 0.01 0.424068 255 128 0
0.439388 0.01 0.984251 255 128 0
0.875606 0.01 0.763122 255 128 0
0.80076 0.01 0.606354 255 128 0
0.282981 0.01 0.860774 255 128 0
0.313377 0.01 0.125926 255 128 0
0.101935 0.01 0.315265 255 128 0
0.110021 0.01 0.486841 255 128 0
0.786445 0.01 0.254267 255 128 0
0.879099 0.01 0.462735 255 128 0
0.325923 0.01 0.769885 255 128 0
0.661792 0.01 0.777527 255 128 0
0.864055 0.01 0.959154 255 128 0
0.700668 0.01 0.260092 255 128 0
0.960267 0.01 0.372438 255 128 0
0.350517 0.01 0.0254904 255 128 0
0.471341 0.01 0.792917 255 128 0
0.813557 0.01 0.0685576 255 128 0
0.511081 0.01 0.324127 255 128 0
0.189438 0.01 0.657213 255 128 0
0.113225 0.01 0.552075 255 128 0
0.601496 0.01 0.107472 255 128 0
0.917199 0.01 0.0179258 255 128 0
0.133461 0.01 0.140302 255 128 0
0.79437 0.01 0.565374 255 128 0
0.181719 0.01 0.556251 255 128 0
0.549094 0.01 0.59708 255 128 0
0.548725 0.01 0.91542 255 128 0
0.928928 0.01 0.0677413 255 128 0
0.196163 0.01 0.328456 255 128 0
0.605775 0.01 0.82053 255 128 0
0.733357 0.01 0.49495 255 128 0
0.472107 0.01 0.287638 255 128 0
0.697221 0.01 0.441049 255 128 0
0.558676 0.01 0.20798 255 128 0
0.671695 0.01 0.596692 255 128 0
0.788827 0.01 0.703753 255 128 0
0.97739 0.01 0.906531 255 128 0
0.324214 0.01 0.353718 255 128 0
0.522665 0.01 0.551305 255 128 0
0.654304 0.01 0.327575 255 128 0
0.481806 0.01 0.363709 255 128 0
0.22046 0.01 0.192828 255 128 0
0.805754 0.01 0.184572 255 128 0
0.236941 0.01 0.264173 255 128 0
0.262576 0.01 0.97547 255 128 0
0.158906 0.01 0.146564 255 128 0
0.249152 0.01 0.220672 255 128 0
0.79545 0.01 0.927127 255 128 0
0.402739 0.01 0.590525 255 128 0
0.515976 0.01 0.646686 255 128 0
0.490675 0.01 0.19946 255 128 0
0.0621821 0.01 0.231286 255 128 0
0.224102 0.01 0.0185512 255 128 0
0.119258 0.01 0.65945 255 128 0
0.276877 0.01 0.681726 255 128 0
0.355423 0.01 0.118296 255 128 0
0.856626 0.01 0.573393 255 128 0
0.299028 0.01 0.16776 255 128 0
0.974568 0.01 0.351646 255 128 0
0.28636 0.01 0.318617 255 128 0
0.217323 0.01 0.112344 255 128 0
0.370764 0.01 0.430031 255 128 0
0.409513 0.01 0.0473344 255 128 0
0.535165 0.01 0.052393 255 128 0
0.292692 0.01 0.431228 255 128 0
0.454758 0.01 0.952585 255 128 0
0.436745 0.01 0.85287 255 128 0
0.647872 0.01 0.595027 255 128 0
0.256848 0.01 0.846503 255 128 0
0.564241 0.01 0.979498 255 128 0
0.46834 0.01 0.169816 255 128 0
0.418974 0.01 0.0834258 255 128 0
0.23323 0.01 0.0414132 255 128 0
0.714503 0.01 0.977885 255 128 0
0.642234 0.01 0.391057 255 128 0
0.940383 0.01 0.881928 255 128 0
0.152665 0.01 0.08973 255 128 0
0.205661 0.01 0.96149 255 128 0
0.629482 0.01 0.135179 255 128 0
0.474641 0.01 0.879964 255 128 0
0.479111 0.01 0.658695 255 128 0
0.170195 0.01 0.574386 255 128 0
0.0774896 0.01 0.738858 255 128 0
0.556397 0.01 0.0675513 255 128 0
0.827009 0.01 0.30244 255 128 0
0.570821 0.01 0.641461 255 128 0
0.991022 0.01 0.359055 255 128 0
0.573175 0.01 0.422877 255 128 0
0.494343 0.01 0.851132 255 128 0
0.85348 0.01 0.0131209 255 128 0
0.406146 0.01 0.809189 255 128 0
0.306823 0.01 0.428718 255 128 0
0.46067 0.01 0.816397 255 128 0
0.476727 0.01 0.0406753 255 128 0
0.973336 0.01 0.201736 255 128 0
0.361274 0.01 0.9054 255 128 0
0.891576 0.01 0.397918 255 128 0
0.703379 0.01 0.536438 255 128 0
0.346765 0.01 0.403003 255 128 0
0.867372 0.01 0.0492877 255 128 0
0.266369 0.01 0.291258 255 128 0
0.432624 0.01 0.0209561 255 128 0
0.411814 0.01 0.519663 255 128 0
0.842677 0.01 0.0189694 255 128 0
0.864317 0.01 0.131062 255 128 0
0.151313 0.01 0.105596 255 128 0
0.998465 0.01 0.544888 255 128 0
0.396772 0.01 0.333136 255 128 0
0.10104 0.01 0.838024 255 128 0
0.506581 0.01 0.403918 255 128 0
0.638985 0.01 0.932953 255 128 0
0.765916 0.01 0.301984 255 128 0
0.48244 0.01 0.997324 255 128 0
0.501312 0.01 0.239124 255 128 0
0.115448 0.01 0.650223 255 128 0
0.860667 0.01 0.334848 255 128 0
0.133742 0.01 0.514828 255 128 0
0.74715 0.01 0.220892 255 128 0
0.105257 0.01 0.317032 255 128 0
0.425321 0.01 0.69408 255 128 0
0.755981 0.01 0.122483 255 128 0
0.187205 0.01 0.548066 255 128 0
0.137512 0.01 0.963997 255 128 0
0.776847 0.01 0.283947 255 128 0
0.421291 0.01 0.382075 255 128 0
0.81592 0.01 0.194154 255 128 0
0.202665 0.01 0.270358 255 128 0
0.156912 0.01 0.339292 255 128 0
0.394828 0.01 0.92785 255 128 0
0.985042 0.01 0.343169 255 128 0
0.704219 0.01 0.676402 255 128 0
0.632351 0.01 0.0402754 255 128 0
0.668053 0.01 0.880895 255 128 0
0.8177 0.01 0.792797 255 128 0
0.950192 0.01 0.426585 255 128 0
0.699017 0.01 0.774157 255 128 0
0.458312 0.01 0.60225 255 128 0
0.869264 0.01 0.434542 255 128 0
0.0888723 0.01 0.440473 255 128 0
0.961712 0.01 0.247238 255 128 0
0.0852725 0.01 0.484022 255 128 0
0.462258 0.01 0.393062 255 128 0
0.232565 0.01 0.0555579 255 128 0
0.318507 0.01 0.949112 255 128 0
0.132133 0.01 0.195753 255 128 0
0.961073 0.01 0.841165 255 128 0
0.610254 0.01 0.204246 255 128 0
0.382615 0.01 0.0236504 255 128 0
0.309951 0.01 0.292928 255 128 0
0.207884 0.01 0.532014 255 128 0
0.146073 0.01 0.275457 255 128 0
0.943484 0.01 0.57501 255 128 0
0.199063 0.01 0.958426 255 128 0
0.607096 0.01 0.433866 255 128 0
0.963271 0.01 0.202325 255 128 0
0.300653 0.01 0.094898 255 128 0
0.83711 0.01 0.639644 255 128 0
0.564369 0.01 0.341727 255 128 0
0.835919 0.01 0.459016 255 128 0
0.151049 0.01 0.0613249 255 128 0
0.971724 0.01 0.900494 255 128 0
0.540932 0.01 0.279126 255 128 0
0.299441 0.01 0.943088 255 128 0
0.551245 0.01 0.653841 255 128 0
0.806919 0.01 0.0770374 255 128 0
0.701789 0.01 0.963839 255 128 0
0.21977 0.01 0.84753 255 128 0
0.365049 0.01 0.342373 255 128 0
0.810515 0.01 0.0079969 255 128 0
0.470841 0.01 0.108707 255 128 0
0.826093 0.01 0.211159 255 128 0
0.676475 0.01 0.564299 255 128 0
0.755684 0.01 0.908451 255 128 0
0.345291 0.01 0.302054 255 128 0
0.503922 0.01 0.415409 255 128 0
0.0812292 0.01 0.31101 255 128 0
0.341519 0.01 0.853039 255 128 0
0.9341 0.01 0.670731 255 128 0
0.224376 0.01 0.363599 255 128 0
0.573488 0.01 0.143361 255 128 0
0.627521 0.01 0.901328 255 128 0
0.0688441 0.01 0.125569 255 128 0
0.187419 0.01 0.547228 255 128 0
0.832619 0.01 0.754058 255 128 0
0.364081 0.01 0.596524 255 128 0
0.94753 0.01 0.295124 255 128 0
0.844911 0.01 0.0794183 255 128 0
0.718743 0.01 0.328135 255 128 0
0.323676 0.01 0.414627 255 128 0
0.709281 0.01 0.0916602 255 128 0
0.742023 0.01 0.444008 255 128 0
0.234717 0.01 0.443229 255 128 0
0.52378 0.01 0.905955 255 128 0
0.543431 0.01 0.633238 255 128 0
0.754783 0.01 0.825495 255 128 0
0.755994 0.01 0.121871 255 128 0
0.819659 0.01 0.663816 255 128 0
0.548736 0.01 0.679809 255 128 0
0.953451 0.01 0.180169 255 128 0
0.945111 0.01 0.690257 255 128 0
0.992003 0.01 0.679216 255 128 0
0.10026 0.01 0.0243228 255 128 0
0.376252 0.01 0.480371 255 128 0
0.439082 0.01 0.0585547 255 128 0
0.368505 0.01 0.955114 255 128 0
0.524313 0.01 0.410728 255 128 0
0.196778 0.01 0.410139 255 128 0
0.563654 0.01 0.112946 255 128 0
0.374962 0.01 0.725572 255 128 0
0.562962 0.01 0.38682 255 128 0
0.734324 0.01 0.299775 255 128 0
0.164295 0.01 0.757236 255 128 0
0.339544 0.01 0.841761 255 128 0
0.831298 0.01 0.463992 255 128 0
0.169603 0.01 0.141552 255 128 0
0.86186 0.01 0.869012 255 128 0
0.579464 0.01 0.927164 255 128 0
0.176016 0.01 0.515511 255 128 0
0.978311 0.01 0.287015 255 128 0
0.579961 0.01 0.275738 255 128 0
0.968595 0.01 0.0649869 255 128 0
0.238396 0.01 0.398307 255 128 0
0.221923 0.01 0.610149 255 128 0
0.790436 0.01 0.342964 255 128 0
0.741087 0.01 0.170384 255 128 0
0.358952 0.01 0.30319 255 128 0
0.824661 0.01 0.121428 255 128 0
0.352891 0.01 0.729805 255 128 0
0.787455 0.01 0.477967 255 128 0
0.511569 0.01 0.776852 255 128 0
0.866854 0.01 0.0916848 255 128 0
0.956156 0.01 0.149445 255 128 0
0.609689 0.01 0.0357169 255 128 0
0.200396 0.01 0.0956691 255 128 0
0.0624808 0.01 0.398957 255 128 0
0.48669 0.01 0.682049 255 128 0
0.540507 0.01 0.52949 255 128 0
0.229704 0.01 0.593374 255 128 0
0.206831 0.01 0.723958 255 128 0
0.446982 0.01 0.493629 255 128 0
0.74391 0.01 0.557599 255 128 0
0.735963 0.01 0.188747 255 128 0
0.512398 0.01 0.609517 255 128 0
0.826163 0.01 0.324812 255 128 0
0.670253 0.01 0.496358 255 128 0
0.621162 0.01 0.620932 255 128 0
0.801681 0.01 0.0435969 255 128 0
0.580578 0.01 0.718183 255 128 0
0.0738315 0.01 0.37663 255 128 0
0.572701 0.01 0.456554 255 128 0
0.288196 0.01 0.175575 255 128 0
0.859052 0.01 0.778985 255 128 0
0.301827 0.01 0.831244 255 128 0
0.551828 0.01 0.508183 255 128 0
0.902077 0.01 0.201491 255 128 0
0.257928 0.01 0.344698 255 128 0
0.65735 0.01 0.514341 255 128 0
0.272532 0.01 0.798411 255 128 0
0.740251 0.01 0.295329 255 128 0
0.133915 0.01 0.49201 255 128 0
0.400657 0.01 0.968966 255 128 0
0.895127 0.01 0.116711 255 128 0
0.762998 0.01 0.296965 255 128 0
0.454288 0.01 0.175457 255 128 0
0.359981 0.01 0.254123 255 128 0
0.234375 0.01 0.100147 255 128 0
0.993131 0.01 0.632479 255 128 0
0.993482 0.01 0.243556 255 128 0
0.313478 0.01 0.644981 255 128 0
0.184422 0.01 0.402661 255 128 0
0.377718 0.01 0.602351 255 128 0
0.348341 0.01 0.518577 255 128 0
0.631413 0.01 0.235116 255 128 0
0.201943 0.01 0.376012 255 128 0
0.464344 0.01 0.830216 255 128 0
0.744864 0.01 0.0795822 255 128 0
0.206161 0.01 0.205626 255 128 0
0.517379 0.01 0.0489761 255 128 0
0.860061 0.01 0.597137 255 128 0
0.41274 0.01 0.84263 255 128 0
0.154331 0.01 0.62438 255 128 0
0.737682 0.01 0.0763959 255 128 0
0.50671 0.01 0.164176 255 128 0
0.221709 0.01 0.573151 255 128 0
0.802648 0.01 0.148322 255 128 0
0.222142 0.01 0.462188 255 128 0
0.483188 0.01 0.683077 255 128 0
0.25411 0.01 0.020218 255 128 0
0.264789 0.01 0.970726 255 128 0
0.061526 0.01 0.744408 255 128 0
0.272312 0.01 0.750509 255 128 0
0.684846 0.01 0.727291 255 128 0
0.585136 0.01 0.828208 255 128 0
0.157001 0.01 0.281305 255 128 0
0.531747 0.01 0.736433 255 128 0
0.586893 0.01 0.129135 255 128 0
0.994678 0.01 0.590548 255 128 0
0.308321 0.01 0.796859 255 128 0
0.967328 0.01 0.656232 255 128 0
0.327054 0.01 0.429524 255 128 0
0.845941 0.01 0.757597 255 128 0
0.892115 0.01 0.59259 255 128 0
0.544444 0.01 0.595923 255 128 0
0.0857531 0.01 0.644355 255 128 0
0.925786 0.01 0.795906 255 128 0
0.972576 0.01 0.566753 255 128 0
0.620793 0.01 0.891659 255 128 0
0.0654415 0.01 0.362363 255 128 0
0.927182 0.01 0.680614 255 128 0
0.72058 0.01 0.735695 255 128 0
0.435457 0.01 0.302842 255 128 0
0.334933 0.01 0.620843 255 128 0
0.995929 0.01 0.140458 255 128 0
0.924345 0.01 0.527351 255 128 0
0.851512 0.01 0.779164 255 128 0
0.719356 0.01 0.0955573 255 128 0
0.326883 0.01 0.310374 255 128 0
0.90836 0.01 0.179329 255 128 0
0.60867 0.01 0.205646 255 128 0
0.762034 0.01 0.770123 255 128 0
0.418727 0.01 0.745013 255 128 0
0.43917 0.01 0.862312 255 128 0
0.886463 0.01 0.671769 255 128 0
0.404743 0.01 0.874176 255 128 0
0.849182 0.01 0.477264 255 128 0
0.798898 0.01 0.659145 255 128 0
0.435693 0.01 0.546484 255 128 0
0.436128 0.01 0.567081 255 128 0
0.10122 0.01 0.290758 255 128 0
0.81586 0.01 0.94311 255 128 0
0.412547 0.01 0.589448 255 128 0
0.927089 0.01 0.474108 255 128 0
0.792184 0.01 0.575938 255 128 0
0.462713 0.01 0.740315 255 128 0
0.797879 0.01 0.676422 255 128 0
0.288761 0.01 0.691398 255 128 0
0.752247 0.01 0.723797 255 128 0
0.449255 0.01 0.196532 255 128 0
0.885766 0.01 0.0365841 255 128 0
0.798406 0.01 0.230005 255 128 0
0.424175 0.01 0.999273 255 128 0
0.769551 0.01 0.632076 255 128 0
0.512854 0.01 0.634075 255 128 0
0.575632 0.01 0.426995 255 128 0
0.519393 0.01 0.85349 255 128 0
0.666873 0.01 0.17688 255 128 0
0.411554 0.01 0.512533 255 128 0
0.776007 0.01 0.660573 255 128 0
0.0552557 0.01 0.716955 255 128 0
0.0777753 0.01 0.0124442 255 128 0
0.726699 0.01 0.777353 255 128 0
0.985357 0.01 0.0280208 255 128 0
0.495205 0.01 0.0122551 255 128 0
0.454599 0.01 0.374933 255 128 0
0.700256 0.01 0.903499 255 128 0
0.272857 0.01 0.817788 255 128 0
0.488842 0.01 0.51709 255 128 0
0.970566 0.01 0.688842 255 128 0
0.739003 0.01 0.0551745 255 128 0
0.432532 0.01 0.00863098 255 128 0
0.434519 0.01 0.981513 255 128 0
0.884126 0.01 0.341853 255 128 0
0.187483 0.01 0.468113 255 128 0
0.939393 0.01 0.532452 255 128 0
0.236056 0.01 0.866774 255 128 0
0.508844 0.01 0.978072 255 128 0
0.260313 0.01 0.805963 255 128 0
0.816001 0.01 0.0434845 255 128 0
0.581285 0.01 0.376171 255 128 0
0.49171 0.01 0.205571 255 128 0
0.397896 0.01 0.539867 255 128 0
0.993139 0.01 0.437556 255 128 0
0.146695 0.01 0.18253 255 128 0
0.771332 0.01 0.163682 255 128 0
0.799896 0.01 0.761261 255 128 0
0.77356 0.01 0.874234 255 128 0
0.225434 0.01 0.127716 255 128 0
0.210368 0.01 0.39805 255 128 0
0.0629727 0.01 0.977725 255 128 0
0.690123 0.01 0.319285 255 128 0
0.705968 0.01 0.972021 255 128 0
0.723843 0.01 0.433987 255 128 0
0.745022 0.01 0.925254 255 128 0
0.743461 0.01 0.404828 255 128 0
0.552525 0.01 0.40757 255 128 0
0.32726 0.01 0.947525 255 128 0
0.216102 0.01 0.441998 255 128 0
0.502279 0.01 0.194694 255 128 0
0.841695 0.01 0.511688 255 128 0
0.188849 0.01 0.909535 255 128 0
0.838778 0.01 0.281874 255 128 0
0.855159 0.01 0.966277 255 128 0
0.495257 0.01 0.750138 255 128 0
0.8903 0.01 0.724378 255 128 0
0.396577 0.01 0.69913 255 128 0
0.261307 0.01 0.0197992 255 128 0
0.208678 0.01 0.600797 255 128 0
0.290384 0.01 0.87225 255 128 0
0.219479 0.01 0.823748 255 128 0
0.179972 0.01 0.636301 255 128 0
0.574461 0.01 0.858515 255 128 0
0.37564 0.01 0.331817 255 128 0
0.576177 0.01 0.873761 255 128 0
0.430014 0.01 0.13113 255 128 0
0.65928 0.01 0.908802 255 128 0
0.30545 0.01 0.513826 255 128 0
0.378897 0.01 0.126345 255 128 0
0.707889 0.01 0.125304 255 128 0
0.988311 0.01 0.601136 255 128 0
0.202704 0.01 0.344216 255 128 0
0.74688 0.01 0.794985 255 128 0
0.926408 0.01 0.0119777 255 128 0
0.508328 0.01 0.445027 255 128 0
0.306656 0.01 0.136734 255 128 0
0.333517 0.01 0.383643 255 128 0
0.544974 0.01 0.857841 255 128 0
0.61093 0.01 0.602632 255 128 0
0.571664 0.01 0.952437 255 128 0
0.491668 0.01 0.386675 255 128 0
0.68123 0.01 0.96838 255 128 0
0.151672 0.01 0.448482 255 128 0
0.381104 0.01 0.825535 255 128 0
0.431408 0.01 0.189151 255 128 0
0.650588 0.01 0.651986 255 128 0
0.542609 0.01 0.0475787 255 128 0
0.819326 0.01 0.633204 255 128 0
0.411231 0.01 0.0831297 255 128 0
0.209656 0.01 0.369342 255 128 0
0.120622 0.01 0.423226 255 128 0
0.180208 0.01 0.506665 255 128 0
0.594793 0.01 0.654536 255 128 0
0.509413 0.01 0.567528 255 128 0
0.724424 0.01 0.281573 255 128 0
0.346897 0.01 0.0638918 255 128 0
0.108754 0.01 0.615343 255 128 0
0.606261 0.01 0.599042 255 128 0
0.35533 0.01 0.768153 255 128 0
0.181277 0.01 0.859928 255 128 0
0.690269 0.01 0.105715 255 128 0
0.648632 0.01 0.677224 255 128 0
0.916235 0.01 0.871264 255 128 0
0.430395 0.01 0.607321 255 128 0
0.322821 0.01 0.891038 255 128 0
0.766713 0.01 0.197544 255 128 0
0.129536 0.01 0.16904 255 128 0
0.292031 0.01 0.177273 255 128 0
0.322805 0.01 0.30092 255 128 0
0.372339 0.01 0.0433013 255 128 0
0.358138 0.01 0.872685 255 128 0
0.637721 0.01 0.558123 255 128 0
0.156488 0.01 0.198772 255 128 0
0.423915 0.01 0.189375 255 128 0
0.127578 0.01 0.786774 255 128 0
0.124467 0.01 0.369699 255 128 0
0.867697 0.01 0.761323 255 128 0
0.494605 0.01 0.945789 255 128 0
0.544259 0.01 0.41955 255 128 0
0.608133 0.01 0.457511 255 128 0
0.62475 0.01 0.44861 255 128 0
0.481259 0.01 0.00713138 255 128 0
0.293285 0.01 0.653783 255 128 0
0.0531447 0.01 0.909654 255 128 0
0.766828 0.01 0.78067 255 128 0
0.99745 0.01 0.0050553 255 128 0
0.998207 0.01 0.239607 255 128 0
0.143666 0.01 0.367458 255 128 0
0.321848 0.01 0.344636 255 128 0
0.0774378 0.01 0.0513412 255 128 0
0.347223 0.01 0.884459 255 128 0
0.427057 0.01 0.105436 255 128 0
0.507361 0.01 0.546461 255 128 0
0.624161 0.01 0.800863 255 128 0
0.250058 0.01 0.585697 255 128 0
0.310047 0.01 0.69682 255 128 0
0.662134 0.01 0.676196 255 128 0
0.912081 0.01 0.680904 255 128 0
0.489896 0.01 0.972898 255 128 0
0.653683 0.01 0.420427 255 128 0
0.447813 0.01 0.110656 255 128 0
0.232269 0.01 0.704817 255 128 0
0.678008 0.01 0.0812426 255 128 0
0.794666 0.01 0.489434 255 128 0
0.204954 0.01 0.337989 255 128 0
0.870993 0.01 0.856292 255 128 0
0.14388 0.01 0.180007 255 128 0
0.559639 0.01 0.596356 255 128 0
0.737654 0.01 0.810871 255 128 0
0.361541 0.01 0.801012 255 128 0
0.350369 0.01 0.92445 255 128 0
0.979748 0.01 0.287977 255 128 0
0.619912 0.01 0.872832 255 128 0
0.983396 0.01 0.0347225 255 128 0
0.248993 0.01 0.135506 255 128 0
0.56232 0.01 0.272979 255 128 0
0.768162 0.01 0.939958 255 128 0
0.943229 0.01 0.684194 255 128 0
0.0591884 0.01 0.718958 255 128 0
0.55242 0.01 0.31519 255 128 0
0.351216 0.01 0.154175 255 128 0
0.110864 0.01 0.464909 255 128 0
0.0788412 0.01 0.571118 255 128 0
0.880622 0.01 0.267321 255 128 0
0.252925 0.01 0.451983 255 128 0
0.891604 0.01 0.515705 255 128 0
0.868698 0.01 0.574081 255 128 0
0.636347 0.01 0.175803 255 128 0
0.323388 0.01 0.0801834 255 128 0
0.83673 0.01 0.633211 255 128 0
0.458701 0.01 0.929525 255 128 0
0.177455 0.01 0.35639 255 128 0
0.980745 0.01 0.388033 255 128 0
0.414324 0.01 0.233197 255 128 0
0.35718 0.01 0.319388 255 128 0
0.10996 0.01 0.599496 255 128 0
0.119095 0.01 0.80038 255 128 0
0.755159 0.01 0.0438066 255 128 0
0.550618 0.01 0.34157 255 128 0
0.247379 0.01 0.820071 255 128 0
0.530286 0.01 0.748058 255 128 0
0.621102 0.01 0.298027 255 128 0
0.611332 0.01 0.355525 255 128 0
0.494044 0.01 0.876593 255 128 0
0.410655 0.01 0.578903 255 128 0
0.904093 0.01 0.59006 255 128 0
0.426439 0.01 0.135323 255 128 0
0.118211 0.01 0.274449 255 128 0
0.482446 0.01 0.804254 255 128 0
0.863707 0.01 0.780445 255 128 0
0.330504 0.01 0.461289 255 128 0
0.871705 0.01 0.721362 255 128 0
0.105747 0.01 0.424603 255 128 0
0.769221 0.01 0.701909 255 128 0
0.927939 0.01 0.305573 255 128 0
0.0554294 0.01 0.232729 255 128 0
0.908743 0.01 0.238188 255 128 0
0.609544 0.01 0.185548 255 128 0
0.628363 0.01 0.252836 255 128 0
0.332739 0.01 0.976278 255 128 0
0.655879 0.01 0.364205 255 128 0
0.593315 0.01 0.979827 255 128 0
0.185514 0.01 0.550029 255 128 0
0.441092 0.01 0.389743 255 128 0
0.233752 0.01 0.716836 255 128 0
0.368867 0.01 0.538199 255 128 0
0.118221 0.01 0.942407 255 128 0
0.469393 0.01 0.350081 255 128 0
0.198399 0.01 0.202113 255 128 0
0.37253 0.01 0.342657 255 128 0
0.263559 0.01 0.817189 255 128 0
0.711783 0.01 0.771943 255 128 0
0.357026 0.01 0.511208 255 128 0
0.0669534 0.01 0.220354 255 128 0
0.879524 0.01 0.905291 255 128 0
0.996603 0.01 0.851482 255 128 0
0.240152 0.01 0.289897 255 128 0
0.314306 0.01 0.603382 255 128 0
0.943562 0.01 0.216483 255 128 0
0.505007 0.01 0.968827 255 128 0
0.839029 0.01 0.878229 255 128 0
0.975998 0.01 0.0477122 255 128 0
0.338384 0.01 0.212346 255 128 0
0.132299 0.01 0.507582 255 128 0
0.422557 0.01 0.930785 255 128 0
0.709158 0.01 0.908579 255 128 0
0.562561 0.01 0.967672 255 128 0
0.290464 0.01 0.694185 255 128 0
0.764237 0.01 0.124221 255 128 0
0.892153 0.01 0.848575 255 128 0
0.447567 0.01 0.912601 255 128 0
0.7334 0.01 0.615127 255 128 0
0.259523 0.01 0.55787 255 128 0
0.570496 0.01 0.0913301 255 128 0
0.286595 0.01 0.0110914 255 128 0
0.0782577 0.01 0.571262 255 128 0
0.501812 0.01 0.699943 255 128 0
0.630602 0.01 0.353198 255 128 0
0.745218 0.01 0.766864 255 128 0
0.68335 0.01 0.0397928 255 128 0
0.598346 0.01 0.462343 255 128 0
0.490197 0.01 0.714326 255 128 0
0.331951 0.01 0.7835 255 128 0
0.788364 0.01 0.0400598 255 128 0
0.249048 0.01 0.284285 255 128 0
0.954111 0.01 0.42417 255 128 0
0.898544 0.01 0.724932 255 128 0
0.611256 0.01 0.60957 255 128 0
0.889865 0.01 0.230287 255 128 0
0.775469 0.01 0.456035 255 128 0
0.915845 0.01 0.24805 255 128 0
0.22503 0.01 0.185166 255 128 0
0.632447 0.01 0.0862875 255 128 0
0.420752 0.01 0.312472 255 128 0
0.88915 0.01 0.97911 255 128 0
0.986659 0.01 0.911826 255 128 0
0.21427 0.01 0.711794 255 128 0
0.570053 0.01 0.637654 255 128 0
0.673392 0.01 0.64301 255 128 0
0.172341 0.01 0.6435 255 128 0
0.270185 0.01 0.931458 255 128 0
0.502208 0.01 0.228164 255 128 0
0.462685 0.01 0.806288 255 128 0
0.574425 0.01 0.0177653 255 128 0
0.288378 0.01 0.0895167 255 128 0
0.94945 0.01 0.811846 255 128 0
0.287912 0.01 0.701317 255 128 0
0.992112 0.01 0.96462 255 128 0
0.916839 0.01 0.606577 255 128 0
0.424911 0.01 0.383338 255 128 0
0.100454 0.01 0.263 255 128 0
0.394063 0.01 0.794296 255 128 0
0.672585 0.01 0.932603 255 128 0
0.308627 0.01 0.706297 255 128 0
0.21072 0.01 0.941455 255 128 0
0.659828 0.01 0.768003 255 128 0
0.273612 0.01 0.411766 255 128 0
0.804075 0.01 0.572594 255 128 0
0.130056 0.01 0.836762 255 128 0
0.187899 0.01 0.417508 255 128 0
0.537832 0.01 0.945652 255 128 0
0.189197 0.01 0.0392908 255 128 0
0.974477 0.01 0.869095 255 128 0
0.81243 0.01 0.617062 255 128 0
0.119724 0.01 0.524572 255 128 0
0.146473 0.01 0.154909 255 128 0
0.334124 0.01 0.455563 255 128 0
0.973167 0.01 0.0383318 255 128 0
0.392895 0.01 0.0623445 255 128 0
0.702619 0.01 0.780856 255 128 0
0.47638 0.01 0.977098 255 128 0
0.756953 0.01 0.990118 255 128 0
0.516427 0.01 0.665538 255 128 0
0.522628 0.01 0.796705 255 128 0
0.611581 0.01 0.998013 255 128 0
0.996536 0.01 0.619258 255 128 0
0.1018 0.01 0.347075 255 128 0
0.234003 0.01 0.979707 255 128 0
0.243904 0.01 0.430169 255 128 0
0.720197 0.01 0.386964 255 128 0
0.158821 0.01 0.733481 255 128 0
0.631878 0.01 0.0656419 255 128 0
0.913326 0.01 0.24062 255 128 0
0.794461 0.01 0.915891 255 128 0
0.797582 0.01 0.0161198 255 128 0
0.0847781 0.01 0.910375 255 128 0
0.644621 0.01 0.0416676 255 128 0
0.675177 0.01 0.960514 255 128 0
0.585969 0.01 0.692913 255 128 0
0.788024 0.01 0.948411 255 128 0
0.623796 0.01 0.521949 255 128 0
0.771837 0.01 0.439827 255 128 0
0.590629 0.01 0.392264 255 128 0
0.693174 0.01 0.615303 255 128 0
0.703164 0.01 0.218111 255 128 0
0.980923 0.01 0.432757 255 128 0
0.568898 0.01 0.378682 255 128 0
0.6502 0.01 0.639108 255 128 0
0.532331 0.01 0.818872 255 128 0
0.132492 0.01 0.221977 255 128 0
0.15351 0.01 0.66456 255 128 0
0.847903 0.01 0.19079 255 128 0
0.639448 0.01 0.959325 255 128 0
0.964611 0.01 0.59678 255 128 0
0.68057 0.01 0.679091 255 128 0
0.85594 0.01 0.440991 255 128 0
0.23634 0.01 0.658046 255 128 0
0.77965 0.01 0.296505 255 128 0
0.21082 0.01 0.379083 255 128 0
0.344367 0.01 0.840572 255 128 0
0.13589 0.01 0.231518 255 128 0
0.749921 0.01 0.865559 255 128 0
0.14182 0.01 0.0787084 255 128 0
0.991535 0.01 0.802356 255 128 0
0.674252 0.01 0.853873 255 128 0
0.468563 0.01 0.668218 255 128 0
0.899338 0.01 0.727051 255 128 0
0.108652 0.01 0.727596 255 128 0
0.499042 0.01 0.353457 255 128 0
0.4527 0.01 0.757733 255 128 0
0.245393 0.01 0.403625 255 128 0
0.244892 0.01 0.372095 255 128 0
0.764225 0.01 0.636749 255 128 0
0.806334 0.01 0.153925 255 128 0
0.885349 0.01 0.738964 255 128 0
0.724936 0.01 0.968223 255 128 0
0.461829 0.01 0.494413 255 128 0
0.461731 0.01 0.8363 255 128 0
0.320185 0.01 0.518395 255 128 0
0.709766 0.01 0.348397 255 128 0
0.271035 0.01 0.925418 255 128 0
0.898195 0.01 0.792137 255 128 0
0.741384 0.01 0.453261 255 128 0
0.483389 0.01 0.185924 255 128 0
0.475555 0.01 0.818272 255 128 0
0.431882 0.01 0.550009 255 128 0
0.21565 0.01 0.510243 255 128 0
0.143524 0.01 0.262842 255 128 0
0.579986 0.01 0.830838 255 128 0
0.755941 0.01 0.603458 255 128 0
0.816539 0.01 0.932439 255 128 0
0.236041 0.01 0.515535 255 128 0
0.193015 0.01 0.635091 255 128 0
0.590391 0.01 0.343976 255 128 0
0.627929 0.01 0.719591 255 128 0
0.898652 0.01 0.144584 255 128 0
0.15635 0.01 0.262603 255 128 0
0.950481 0.01 0.233463 255 128 0
0.732127 0.01 0.93598 255 128 0
0.421654 0.01 0.518647 255 128 0
0.956367 0.01 0.098129 255 128 0
0.222952 0.01 0.538052 255 128 0
0.883112 0.01 0.494327 255 128 0
0.944423 0.01 0.558398 255 128 0
0.928869 0.01 0.541034 255 128 0
0.183003 0.01 0.459573 255 128 0
0.346623 0.01 0.854969 255 128 0
0.533439 0.01 0.259263 255 128 0
0.842815 0.01 0.0263867 255 128 0
0.121379 0.01 0.315872 255 128 0
0.254978 0.01 0.582137 255 128 0
0.295963 0.01 0.221596 255 128 0
0.472297 0.01 0.446896 255 128 0
0.706485 0.01 0.966642 255 128 0
0.87535 0.01 0.339645 255 128 0
0.226096 0.01 0.573236 255 128 0
0.898308 0.01 0.299954 255 128 0
0.771566 0.01 0.0784446 255 128 0
0.964899 0.01 0.979384 255 128 0
0.844261 0.01 0.661591 255 128 0
0.129996 0.01 0.999307 255 128 0
0.488254 0.01 0.323701 255 128 0
0.948588 0.01 0.803538 255 128 0
0.598026 0.01 0.675881 255 128 0
0.286964 0.01 0.689092 255 128 0
0.348988 0.01 0.150252 255 128 0
0.724582 0.01 0.398288 255 128 0
0.286876 0.01 0.0676842 255 128 0
0.554297 0.01 0.498183 255 128 0
0.640718 0.01 0.722474 255 128 0
0.652205 0.01 0.728966 255 128 0
0.479716 0.01 0.0961004 255 128 0
0.138066 0.01 0.601644 255 128 0
0.630803 0.01 0.416509 255 128 0
0.186084 0.01 0.573728 255 128 0
0.739049 0.01 0.430858 255 128 0
0.960635 0.01 0.326561 255 128 0
0.933057 0.01 0.119083 255 128 0
0.480719 0.01 0.542486 255 128 0
0.974999 0.01 0.364671 255 128 0
0.872699 0.01 0.150221 255 128 0
0.469579 0.01 0.383717 255 128 0
0.248693 0.01 0.334495 255 128 0
0.767885 0.01 0.124185 255 128 0
0.683391 0.01 0.772004 255 128 0
0.320518 0.01 0.627662 255 128 0
0.401717 0.01 0.0355804 255 128 0
0.820106 0.01 0.775615 255 128 0
0.401627 0.01 0.0368142 255 128 0
0.554971 0.01 0.827928 255 128 0
0.0712791 0.01 0.0417096 255 128 0
0.729994 0.01 0.305639 255 128 0
0.777745 0.01 0.268374 255 128 0
0.725861 0.01 0.584778 255 128 0
0.669201 0.01 0.360228 255 128 0
0.542704 0.01 0.310993 255 128 0
0.960065 0.01 0.858198 255 128 0
0.549385 0.01 0.0815928 255 128 0
0.718646 0.01 0.399741 255 128 0
0.982315 0.01 0.198878 255 128 0
0.743924 0.01 0.884975 255 128 0
0.402836 0.01 0.150737 255 128 0
0.573585 0.01 0.765466 255 128 0
0.831205 0.01 0.0437316 255 128 0
0.61208 0.01 0.191554 255 128 0
0.416247 0.01 0.644528 255 128 0
0.456573 0.01 0.899819 255 128 0
0.309525 0.01 0.0719476 255 128 0
0.109098 0.01 0.287396 255 128 0
0.579199 0.01 0.333077 255 128 0
0.0781018 0.01 0.227668 255 128 0
0.882132 0.01 0.860001 255 128 0
0.968153 0.01 0.479276 255 128 0
0.86747 0.01 0.479147 255 128 0
0.0629015 0.01 0.56098 255 128 0
0.902985 0.01 0.47677 255 128 0
0.630123 0.01 0.809127 255 128 0
0.446202 0.01 0.805008 255 128 0
0.872908 0.01 0.494164 255 128 0
0.550741 0.01 0.570215 255 128 0
0.913368 0.01 0.999832 255 128 0
0.75707 0.01 0.0194454 255 128 0
0.80634 0.01 0.645035 255 128 0
0.638419 0.01 0.904684 255 128 0
0.610329 0.01 0.737024 255 128 0
0.663646 0.01 0.445436 255 128 0
0.323033 0.01 0.647615 255 128 0
0.112341 0.01 0.0670831 255 128 0
0.377512 0.01 0.076691 255 128 0
0.281974 0.01 0.246768 255 128 0
0.719143 0.01 0.905785 255 128 0
0.427363 0.01 0.628901 255 128 0
0.847969 0.01 0.411937 255 128 0
0.654172 0.01 0.790807 255 128 0
0.698375 0.01 0.0649523 255 128 0
0.556417 0.01 0.0295237 255 128 0
0.778162 0.01 0.243608 255 128 0
0.859115 0.01 0.340161 255 128 0
0.171944 0.01 0.0164264 255 128 0
0.732062 0.01 0.2671 255 128 0
0.202902 0.01 0.271852 255 128 0
0.526881 0.01 0.231579 255 128 0
0.635598 0.01 0.981727 255 128 0
0.519383 0.01 0.799867 255 128 0
0.51321 0.01 0.11143 255 128 0
0.617724 0.01 0.837293 255 128 0
0.729185 0.01 0.0468123 255 128 0
0.329814 0.01 0.851471 255 128 0
0.668695 0.01 0.34568 255 128 0
0.677649 0.01 0.726633 255 128 0
0.0730473 0.01 0.876041 255 128 0
0.308413 0.01 0.676225 255 128 0
0.153606 0.01 0.697903 255 128 0
0.217711 0.01 0.879525 255 128 0
0.264596 0.01 0.768616 255 128 0
0.215883 0.01 0.886803 255 128 0
0.559826 0.01 0.0204853 255 128 0
0.819444 0.01 0.922504 255 128 0
0.439722 0.01 0.0544345 255 128 0
0.582883 0.01 0.330239 255 128 0
0.143322 0.01 0.424889 255 128 0
0.939187 0.01 0.489306 255 128 0
0.189745 0.01 0.125223 255 128 0
0.17967 0.01 0.281966 255 128 0
0.506377 0.01 0.900141 255 128 0
0.151335 0.01 0.00962218 255 128 0
0.150636 0.01 0.897169 255 128 0
0.713873 0.01 0.22326 255 128 0
0.52518 0.01 0.867846 255 128 0
0.659884 0.01 0.258232 255 128 0
0.272217 0.01 0.627168 255 128 0
0.438369 0.01 0.753774 255 128 0
0.0989651 0.01 0.424341 255 128 0
0.2534 0.01 0.570069 255 128 0
0.889665 0.01 0.578914 255 128 0
0.117873 0.01 0.342652 255 128 0
0.0890175 0.01 0.630905 255 128 0
0.709158 0.01 0.537246 255 128 0
0.61449 0.01 0.0617 255 128 0
0.692575 0.01 0.94705 255 128 0
0.947767 0.01 0.16778 255 128 0
0.738764 0.01 0.678482 255 128 0
0.79307 0.01 0.426416 255 128 0
0.8257 0.01 0.38527 255 128 0
0.0916648 0.01 0.00250525 255 128 0
0.24015 0.01 0.657471 255 128 0
0.406706 0.01 0.066277 255 128 0
0.957909 0.01 0.35761 255 128 0
0.518345 0.01 0.815521 255 128 0
0.541237 0.01 0.999857 255 128 0
0.942255 0.01 0.895308 255 128 0
0.97873 0.01 0.27152 255 128 0
0.509265 0.01 0.124673 255 128 0
0.793692 0.01 0.180408 255 128 0
0.289906 0.01 0.662877 255 128 0
0.30182 0.01 0.119521 255 128 0
0.854128 0.01 0.758528 255 128 0
0.21427 0.01 0.17648 255 128 0
0.652833 0.01 0.222535 255 128 0
0.379203 0.01 0.949954 255 128 0
0.508124 0.01 0.563063 255 128 0
0.703114 0.01 0.225861 255 128 0
0.648093 0.01 0.325837 255 128 0
0.452832 0.01 0.44629 255 128 0
0.867586 0.01 0.58814 255 128 0
0.870423 0.01 0.513448 255 128 0
0.526872 0.01 0.68101 255 128 0
0.948561 0.01 0.0917261 255 128 0
0.468029 0.01 0.0518275 255 128 0
0.466913 0.01 0.389936 255 128 0
0.57843 0.01 0.052882 255 128 0
0.454094 0.01 0.417174 255 128 0
0.967971 0.01 0.881831 255 128 0
0.804753 0.01 0.472407 255 128 0
0.727018 0.01 0.998871 255 128 0
0.99043 0.01 0.206496 255 128 0
0.748078 0.01 0.538458 255 128 0
0.872052 0.01 0.920477 255 128 0
0.595022 0.01 0.154302 255 128 0
0.631617 0.01 0.0596263 255 128 0
0.45338 0.01 0.810632 255 128 0
0.453497 0.01 0.81541 255 128 0
0.544203 0.01 0.405086 255 128 0
0.983813 0.01 0.0959053 255 128 0
0.408322 0.01 0.754009 255 128 0
0.140266 0.01 0.744061 255 128 0
0.231581 0.01 0.624454 255 128 0
0.143229 0.01 0.797225 255 128 0
0.52862 0.01 0.886008 255 128 0
0.874335 0.01 0.207584 255 128 0
0.80018 0.01 0.274739 255 128 0
0.378168 0.01 0.280619 255 128 0
0.924506 0.01 0.0279673 255 128 0
0.696327 0.01 0.563727 255 128 0
0.199213 0.01 0.616749 255 128 0
0.122632 0.01 0.227363 255 128 0
0.434211 0.01 0.0154995 255 128 0
0.431218 0.01 0.737683 255 128 0
0.538765 0.01 0.587785 255 128 0
0.38169 0.01 0.101785 255 128 0
0.840005 0.01 0.967753 255 128 0
0.657387 0.01 0.870047 255 128 0
0.390652 0.01 0.778154 255 128 0
0.0587898 0.01 0.279157 255 128 0
0.238942 0.01 0.426685 255 128 0
0.129548 0.01 0.559735 255 128 0
0.946429 0.01 0.309592 255 128 0
0.538506 0.01 0.51052 255 128 0
0.59495 0.01 0.463824 255 128 0
0.450363 0.01 0.411314 255 128 0
0.611855 0.01 0.0642299 255 128 0
0.786039 0.01 0.219459 255 128 0
0.646084 0.01 0.736894 255 128 0
0.525613 0.01 0.294797 255 128 0
0.386619 0.01 0.0329519 255 128 0
0.250595 0.01 0.445619 255 128 0
0.300287 0.01 0.703705 255 128 0
0.637741 0.01 0.458216 255 128 0
0.99515 0.01 0.758027 255 128 0
0.387347 0.01 0.0314917 255 128 0
0.675732 0.01 0.0301702 255 128 0
0.346743 0.01 0.668977 255 128 0
0.66874 0.01 0.223095 255 128 0
0.856032 0.01 0.128152 255 128 0
0.932365 0.01 0.350467 255 128 0
0.236556 0.01 0.209665 255 128 0
0.542167 0.01 0.10771 255 128 0
0.354406 0.01 0.470912 255 128 0
0.2741 0.01 0.937454 255 128 0
0.405173 0.01 0.904573 255 128 0
0.64449 0.01 0.106316 255 128 0
0.203994 0.01 0.0411375 255 128 0
0.669478 0.01 0.134627 255 128 0
0.746006 0.01 0.700038 255 128 0
0.90244 0.01 0.704973 255 128 0
0.15911 0.01 0.951599 255 128 0
0.594589 0.01 0.511517 255 128 0
0.295005 0.01 0.981013 255 128 0
0.741158 0.01 0.536446 255 128 0
0.612212 0.01 0.486837 255 128 0
0.630599 0.01 0.722129 255 128 0
0.256645 0.01 0.102583 255 128 0
0.772157 0.01 0.550446 255 128 0
0.886589 0.01 0.414708 255 128 0
0.20694 0.01 0.173764 255 128 0
0.214422 0.01 0.884837 255 128 0
0.634068 0.01 0.795545 255 128 0
0.794864 0.01 0.812494 255 128 0
0.692448 0.01 0.381563 255 128 0
0.648594 0.01 0.435271 255 128 0
0.513394 0.01 0.902369 255 128 0
0.345608 0.01 0.673087 255 128 0
0.231105 0.01 0.602421 255 128 0
0.798861 0.01 0.57994 255 128 0
0.961525 0.01 0.704132 255 128 0
0.600935 0.01 0.571359 255 128 0
0.0685035 0.01 0.486465 255 128 0
0.542973 0.01 0.630222 255 128 0
0.552035 0.01 0.691185 255 128 0
0.861745 0.01 0.692151 255 128 0
0.256551 0.01 0.511844 255 128 0
0.695798 0.01 0.91081 255 128 0
0.655117 0.01 0.416442 255 128 0
0.760041 0.01 0.821928 255 128 0
0.548776 0.01 0.739197 255 128 0
0.947676 0.01 0.956424 255 128 0
0.265493 0.01 0.974502 255 128 0
0.391103 0.01 0.76163 255 128 0
0.984967 0.01 0.920101 255 128 0
0.385966 0.01 0.495278 255 128 0
0.362873 0.01 0.203033 255 128 0
0.647494 0.01 0.264205 255 128 0
0.56559 0.01 0.883577 255 128 0
0.262268 0.01 0.228435 255 128 0
0.286001 0.01 0.619452 255 128 0
0.718106 0.01 0.86453 255 128 0
0.17654 0.01 0.203442 255 128 0
0.90405 0.01 0.352362 255 128 0
0.169721 0.01 0.59706 255 128 0
0.0608801 0.01 0.877352 255 128 0
0.632315 0.01 0.727026 255 128 0
0.817575 0.01 0.722433 255 128 0
0.102236 0.01 0.397507 255 128 0
0.249703 0.01 0.732568 255 128 0
0.358022 0.01 0.404203 255 128 0
0.72127 0.01 0.10124 255 128 0
0.685094 0.01 0.474618 255 128 0
0.700591 0.01 0.207799 255 128 0
0.122845 0.01 0.450366 255 128 0
0.409069 0.01 0.749573 255 128 0
0.406393 0.01 0.374333 255 128 0
0.0761469 0.01 0.724147 255 128 0
0.456763 0.01 0.852977 255 128 0
0.943818 0.01 0.24147 255 128 0
0.856217 0.01 0.814071 255 128 0
0.54007 0.01 0.658888 255 128 0
0.182946 0.01 0.20153 255 128 0
0.171273 0.01 0.856443 255 128 0
0.841853 0.01 0.499917 255 128 0
0.327267 0.01 0.940415 255 128 0
0.872622 0.01 0.688101 255 128 0
0.54785 0.01 0.67144 255 128 0
0.529859 0.01 0.967509 255 128 0
0.295148 0.01 0.97827 255 128 0
0.768117 0.01 0.672372 255 128 0
0.220873 0.01 0.0228611 255 128 0
0.870942 0.01 0.326211 255 128 0
0.880093 0.01 0.631083 255 128 0
0.504084 0.01 0.211653 255 128 0
0.142695 0.01 0.718086 255 128 0
0.766069 0.01 0.694642 255 128 0
0.272957 0.01 0.169957 255 128 0
0.271742 0.01 0.88778 255 128 0
0.107133 0.01 0.817009 255 128 0
0.280543 0.01 0.546941 255 128 0
0.873979 0.01 0.941507 255 128 0
0.126361 0.01 0.812233 255 128 0
0.436487 0.01 0.808844 255 128 0
0.558306 0.01 0.261748 255 128 0
0.620702 0.01 0.710327 255 128 0
0.869967 0.01 0.467319 255 128 0
0.279976 0.01 0.206832 255 128 0
0.803359 0.01 0.850789 255 128 0
0.843685 0.01 0.151045 255 128 0
0.400985 0.01 0.742364 255 128 0
0.400187 0.01 0.719871 255 128 0
0.70095 0.01 0.236664 255 128 0
0.777764 0.01 0.889831 255 128 0
0.116534 0.01 0.683372 255 128 0
0.934346 0.01 0.807631 255 128 0
0.144897 0.01 0.207893 255 128 0
0.907259 0.01 0.647401 255 128 0
0.503484 0.01 0.684544 255 128 0
0.664884 0.01 0.699551 255 128 0
0.855524 0.01 0.656382 255 128 0
0.745078 0.01 0.261579 255 128 0
0.498177 0.01 0.965296 255 128 0
0.29879 0.01 0.307251 255 128 0
0.495828 0.01 0.114952 255 128 0
0.103053 0.01 0.526883 255 128 0
0.0713646 0.01 0.619197 255 128 0
0.455601 0.01 0.728867 255 128 0
0.786613 0.01 0.0674346 255 128 0
0.0997548 0.01 0.290012 255 128 0
0.790264 0.01 0.245287 255 128 0
0.109769 0.01 0.725844 255 128 0
0.413063 0.01 0.824887 255 128 0
0.763036 0.01 0.963195 255 128 0
0.869035 0.01 0.830041 255 128 0
0.495005 0.01 0.304125 255 128 0
0.689807 0.01 0.192326 255 128 0
0.286016 0.01 0.0235365 255 128 0
0.724208 0.01 0.771887 255 128 0
0.825032 0.01 0.375572 255 128 0
0.289807 0.01 0.00980959 255 128 0
0.878644 0.01 0.145818 255 128 0
0.917417 0.01 0.645862 255 128 0
0.739947 0.01 0.750954 255 128 0
0.905216 0.01 0.244098 255 128 0
0.372115 0.01 0.614565 255 128 0
0.517368 0.01 0.488763 255 128 0
0.239367 0.01 0.921565 255 128 0
0.0883384 0.01 0.200474 255 128 0
0.379846 0.01 0.215395 255 128 0
0.772893 0.01 0.763434 255 128 0
0.785918 0.01 0.0821025 255 128 0
0.396896 0.01 0.783485 255 128 0
0.742942 0.01 0.248341 255 128 0
0.545893 0.01 0.660905 255 128 0
0.819974 0.01 0.0514656 255 128 0
0.432965 0.01 0.563808 255 128 0
0.61326 0.01 0.845443 255 128 0
0.79832 0.01 0.643846 255 128 0
0.0623929 0.01 0.980402 255 128 0
0.824567 0.01 0.42825 255 128 0
0.117893 0.01 0.620236 255 128 0
0.278995 0.01 0.342701 255 128 0
0.604314 0.01 0.208268 255 128 0
0.699833 0.01 0.91822 255 128 0
0.246866 0.01 0.414336 255 128 0
0.919924 0.01 0.98252 255 128 0
0.148277 0.01 0.205798 255 128 0
0.217506 0.01 0.872412 255 128 0
0.394074 0.01 0.746826 255 128 0
0.69931 0.01 0.753773 255 128 0
0.0912826 0.01 0.251117 255 128 0
0.253204 0.01 0.764029 255 128 0
0.772958 0.01 0.54572 255 128 0
0.772245 0.01 0.341233 255 128 0
0.232191 0.01 0.659765 255 128 0
0.567954 0.01 0.806672 255 128 0
0.378017 0.01 0.19354 255 128 0
0.191865 0.01 0.977875 255 128 0
0.671976 0.01 0.391337 255 128 0
0.2102 0.01 0.810472 255 128 0
0.238785 0.01 0.202612 255 128 0
0.579881 0.01 0.639191 255 128 0
0.165491 0.01 0.375808 255 128 0
0.326481 0.01 0.82851 255 128 0
0.356468 0.01 0.478496 255 128 0
0.588349 0.01 0.392895 255 128 0
0.341228 0.01 0.861295 255 128 0
0.289219 0.01 0.451443 255 128 0
0.756901 0.01 0.258175 255 128 0
0.31322 0.01 0.44998 255 128 0
0.86885 0.01 0.110233 255 128 0
0.290739 0.01 0.806686 255 128 0
0.581737 0.01 0.168827 255 128 0
0.406824 0.01 0.733933 255 128 0
0.935044 0.01 0.129629 255 128 0
0.492088 0.01 0.890784 255 128 0
0.288157 0.01 0.521402 255 128 0
0.30347 0.01 0.734315 255 128 0
0.391833 0.01 0.74438 255 128 0
0.334236 0.01 0.549998 255 128 0
0.774849 0.01 0.284395 255 128 0
0.839311 0.01 0.100528 255 128 0
0.192126 0.01 0.883979 255 128 0
0.268893 0.01 0.339212 255 128 0
0.342348 0.01 0.062332 255 128 0
0.149952 0.01 0.313012 255 128 0
0.712949 0.01 0.324075 255 128 0
0.367999 0.01 0.804726 255 128 0
0.683198 0.01 0.0385558 255 128 0
0.555404 0.01 0.905953 255 128 0
0.95366 0.01 0.675637 255 128 0
0.81572 0.01 0.227484 255 128 0
0.0626172 0.01 0.556769 255 128 0
0.160358 0.01 0.468311 255 128 0
0.967782 0.01 0.0916516 255 128 0
0.999997 0.01 0.138603 255 128 0
0.588192 0.01 0.802132 255 128 0
0.493331 0.01 0.878774 255 128 0
0.870593 0.01 0.294756 255 128 0
0.749792 0.01 0.699624 255 128 0
0.27182 0.01 0.227761 255 128 0
0.118372 0.01 0.0414508 255 128 0
0.425692 0.01 0.607522 255 128 0
0.966608 0.01 0.229175 255 128 0
0.0725813 0.01 0.320034 255 128 0
0.940139 0.01 0.0854495 255 128 0
0.713324 0.01 0.343601 255 128 0
0.79761 0.01 0.811183 255 128 0
0.756569 0.01 0.658364 255 128 0
0.81773 0.01 0.967169 255 128 0
0.98033 0.01 0.879314 255 128 0
0.999716 0.01 0.101064 255 128 0
0.628638 0.01 0.402776 255 128 0
0.119295 0.01 0.745527 255 128 0
0.68581 0.01 0.580868 255 128 0
0.254156 0.01 0.263143 255 128 0
0.206334 0.01 0.2091 255 128 0
0.219236 0.01 0.32015 255 128 0
0.820659 0.01 0.926141 255 128 0
0.118709 0.01 0.380388 255 128 0
0.608608 0.01 0.374813 255 128 0
0.748326 0.01 0.984636 255 128 0
0.929421 0.01 0.0607215 255 128 0
0.306172 0.01 0.744225 255 128 0
0.111761 0.01 0.336648 255 128 0
0.617191 0.01 0.489356 255 128 0
0.997679 0.01 0.213456 255 128 0
0.291573 0.01 0.731467 255 128 0
0.921343 0.01 0.16994 255 128 0
0.893242 0.01 0.23644 255 128 0
0.209361 0.01 0.263406 255 128 0
0.920993 0.01 0.893139 255 128 0
0.360869 0.01 0.407891 255 128 0
0.668664 0.01 0.362831 255 128 0
0.44707 0.01 0.650715 255 128 0
0.538688 0.01 0.0628295 255 128 0
0.363291 0.01 0.881281 255 128 0
0.568943 0.01 0.66117 255 128 0
0.78547 0.01 0.76823 255 128 0
0.575181 0.01 0.785475 255 128 0
0.394013 0.01 0.357004 255 128 0
0.552863 0.01 0.768416 255 128 0
0.68147 0.01 0.822036 255 128 0
0.959219 0.01 0.928643 255 128 0
0.655874 0.01 0.0173353 255 128 0
0.73793 0.01 0.278519 255 128 0
0.771979 0.01 0.692481 255 128 0
0.525683 0.01 0.238531 255 128 0
0.26004 0.01 0.233811 255 128 0
0.536226 0.01 0.169105 255 128 0
0.367653 0.01 0.555881 255 128 0
0.646117 0.01 0.418562 255 128 0
0.270367 0.01 0.571477 255 128 0
0.607994 0.01 0.0508788 255 128 0
0.779748 0.01 0.202605 255 128 0
0.64034 0.01 0.376064 255 128 0
0.41087 0.01 0.929504 255 128 0
0.920777 0.01 0.161209 255 128 0
0.363175 0.01 0.416597 255 128 0
0.698261 0.01 0.869514 255 128 0
0.532899 0.01 0.248077 255 128 0
0.46474 0.01 0.697197 255 128 0
0.0931577 0.01 0.596243 255 128 0
0.588043 0.01 0.0357271 255 128 0
0.961732 0.01 0.329742 255 128 0
0.687164 0.01 0.912573 255 128 0
0.604661 0.01 0.0620267 255 128 0
0.643537 0.01 0.161775 255 128 0
0.273912 0.01 0.206288 255 128 0
0.415399 0.01 0.334804 255 128 0
0.949555 0.01 0.547754 255 128 0
0.582602 0.01 0.0677539 255 128 0
0.406317 0.01 0.362838 255 128 0
0.580431 0.01 0.401201 255 128 0
0.8291 0.01 0.516982 255 128 0
0.947003 0.01 0.545697 255 128 0
0.112398 0.01 0.790774 255 128 0
0.137513 0.01 0.14259 255 128 0
0.725053 0.01 0.989208 255 128 0
0.372674 0.01 0.940087 255 128 0
0.505564 0.01 0.878517 255 128 0
0.33837 0.01 0.733096 255 128 0
0.715221 0.01 0.869992 255 128 0
0.489141 0.01 0.891601 255 128 0
0.0528808 0.01 0.906801 255 128 0
0.259665 0.01 0.753362 255 128 0
0.135466 0.01 0.743428 255 128 0
0.115264 0.01 0.46211 255 128 0
0.470662 0.01 0.34023 255 128 0
0.841469 0.01 0.350912 255 128 0
0.281645 0.01 0.443288 255 128 0
0.785762 0.01 0.970561 255 128 0
0.790022 0.01 0.558269 255 128 0
0.927399 0.01 0.745785 255 128 0
0.822601 0.01 0.283865 255 128 0
0.352985 0.01 0.641901 255 128 0
0.17453 0.01 0.766964 255 128 0
0.442681 0.01 0.881865 255 128 0
0.229549 0.01 0.205468 255 128 0
0.85529 0.01 0.372978 255 128 0
0.291961 0.01 0.135885 255 128 0
0.669277 0.01 0.0368287 255 128 0
0.525345 0.01 0.863793 255 128 0
0.867221 0.01 0.456754 255 128 0
0.335353 0.01 0.844382 255 128 0
0.494428 0.01 0.486777 255 128 0
0.210707 0.01 0.438772 255 128 0
0.437656 0.01 0.116576 255 128 0
0.533937 0.01 0.722587 255 128 0
0.346327 0.01 0.749056 255 128 0
0.0763831 0.01 0.279263 255 128 0
0.768111 0.01 0.424519 255 128 0
0.69332 0.01 0.709765 255 128 0
0.245708 0.01 0.671905 255 128 0
0.54817 0.01 0.689876 255 128 0
0.477044 0.01 0.179781 255 128 0
0.0974717 0.01 0.182595 255 128 0
0.59585 0.01 0.98231 255 128 0
0.0858193 0.01 0.0348024 255 128 0
0.412143 0.01 0.978402 255 128 0
0.381697 0.01 0.227071 255 128 0
0.267225 0.01 0.0704409 255 128 0
0.552477 0.01 0.797501 255 128 0
0.120545 0.01 0.89616 255 128 0
0.275649 0.01 0.902383 255 128 0
0.64327 0.01 0.816118 255 128 0
0.345263 0.01 0.424565 255 128 0
0.749172 0.01 0.71916 255 128 0
0.52865 0.01 0.738512 255 128 0
0.758752 0.01 0.346641 255 128 0
0.0900236 0.01 0.110262 255 128 0
0.093525 0.01 0.612163 255 128 0
0.469676 0.01 0.280291 255 128 0
0.993459 0.01 0.962769 255 128 0
0.561664 0.01 0.599163 255 128 0
0.787572 0.01 0.731658 255 128 0
0.0725206 0.01 0.0700997 255 128 0
0.967013 0.01 0.185617 255 128 0
0.374096 0.01 0.421013 255 128 0
0.474586 0.01 0.143664 255 128 0
0.175254 0.01 0.780008 255 128 0
0.600971 0.01 0.571324 255 128 0
0.135047 0.01 0.892155 255 128 0
0.217415 0.01 0.270471 255 128 0
0.392949 0.01 0.541345 255 128 0
0.629421 0.01 0.2637 255 128 0
0.507321 0.01 0.997691 255 128 0
0.319141 0.01 0.10794 255 128 0
0.229181 0.01 0.647199 255 128 0
0.404733 0.01 0.989483 255 128 0
0.477496 0.01 0.73095 255 128 0
0.829167 0.01 0.730346 255 128 0
0.917062 0.01 0.158162 255 128 0
0.621525 0.01 0.967479 255 128 0
0.653285 0.01 0.684454 255 128 0
0.889401 0.01 0.865389 255 128 0
0.721178 0.01 0.152192 255 128 0
0.586073 0.01 0.909006 255 128 0
0.305833 0.01 0.573625 255 128 0
0.323722 0.01 0.995909 255 128 0
0.412437 0.01 0.221695 255 128 0
0.616682 0.01 0.476954 255 128 0
0.734976 0.01 0.473578 255 128 0
0.740302 0.01 0.239529 255 128 0
0.718452 0.01 0.770709 255 128 0
0.967273 0.01 0.479476 255 128 0
0.995859 0.01 0.941728 255 128 0
0.835582 0.01 0.340645 255 128 0
0.531465 0.01 0.217901 255 128 0
0.853406 0.01 0.580046 255 128 0
0.505171 0.01 0.513009 255 128 0
0.845821 0.01 0.314817 255 128 0
0.45812 0.01 0.567291 255 128 0
0.336336 0.01 0.029456 255 128 0
0.627447 0.01 0.79243 255 128 0
0.24458 0.01 0.996721 255 128 0
0.677505 0.01 0.0621236 255 128 0
0.641636 0.01 0.603341 255 128 0
0.255156 0.01 0.0796977 255 128 0
0.172223 0.01 0.265833 255 128 0
0.343168 0.01 0.606295 255 128 0
0.307823 0.01 0.153597 255 128 0
0.173459 0.01 0.650452 255 128 0
0.06175 0.01 0.0977228 255 128 0
0.752447 0.01 0.223451 255 128 0
0.429174 0.01 0.562084 255 128 0
0.665685 0.01 0.0120275 255 128 0
0.19802 0.01 0.29448 255 128 0
0.235195 0.01 0.997977 255 128 0
0.732923 0.01 0.315251 255 128 0
0.102331 0.01 0.258832 255 128 0
0.826106 0.01 0.0580252 255 128 0
0.642779 0.01 0.288693 255 128 0
0.719326 0.01 0.141568 255 128 0
0.701013 0.01 0.830967 255 128 0
0.301456 0.01 0.128669 255 128 0
0.672995 0.01 0.222381 255 128 0
0.13857 0.01 0.165891 255 128 0
0.841855 0.01 0.259535 255 128 0
0.892244 0.01 0.579932 255 128 0
0.31155 0.01 0.926627 255 128 0
0.131967 0.01 0.866786 255 128 0
0.874064 0.01 0.63881 255 128 0
0.21621 0.01 0.577089 255 128 0
0.442538 0.01 0.224507 255 128 0
0.0542758 0.01 0.141509 255 128 0
0.990868 0.01 0.169424 255 128 0
0.990806 0.01 0.0307682 255 128 0
0.697159 0.01 0.29543 255 128 0
0.920693 0.01 0.117436 255 128 0
0.489676 0.01 0.55973 255 128 0
0.555702 0.01 0.00275497 255 128 0
0.429086 0.01 0.868315 255 128 0
0.0631932 0.01 0.740652 255 128 0
0.361428 0.01 0.0451795 255 128 0
0.961991 0.01 0.605318 255 128 0
0.538136 0.01 0.457513 255 128 0
0.799582 0.01 0.78282 255 128 0
0.903964 0.01 0.239948 255 128 0
