ply
format ascii 1.0
comment Created by Open3D
element vertex 1314
property double x
property double y
property double z
property uchar red
property uchar green
property uchar blue
end_header
-0.0630293 -0.115224 0.105 255 128 0
-0.0842107 0.111962 0.105 255 128 0
0.0629552 -0.102008 0.105 255 128 0
0.0410062 0.134561 0.105 255 128 0
0.00378136 0.101102 0.105 255 128 0
-0.0407594 0.132385 0.105 255 128 0
-0.0835288 -0.0737383 0.105 255 128 0
-0.0223038 0.0203043 0.105 255 128 0
0.0813514 0.0825116 0.105 255 128 0
0.0849984 0.136527 0.105 255 128 0
0.057122 0.136885 0.105 255 128 0
-0.0177876 0.08912 0.105 255 128 0
0.0824172 -0.0700675 0.105 255 128 0
0.00452332 0.0528967 0.105 255 128 0
0.057724 0.115366 0.105 255 128 0
-0.0756365 -0.0849606 0.105 255 128 0
0.097677 0.0914704 0.105 255 128 0
-0.0986466 0.00855245 0.105 255 128 0
-0.016146 0.10092 0.105 255 128 0
0.0234695 -0.140169 0.105 255 128 0
-0.0222101 -0.00624257 0.105 255 128 0
-0.0619536 0.0665289 0.105 255 128 0
0.0931368 0.025122 0.105 255 128 0
-0.0700103 0.0728969 0.105 255 128 0
0.00203726 0.121453 0.105 255 128 0
0.0927933 -0.0638676 0.105 255 128 0
-0.0434712 0.0667571 0.105 255 128 0
0.0612781 -0.0751906 0.105 255 128 0
0.0949755 -0.0237951 0.105 255 128 0
0.00860352 -0.125799 0.105 255 128 0
0.0766745 -0.141571 0.105 255 128 0
0.039484 0.036291 0.105 255 128 0
0.0914657 0.0920869 0.105 255 128 0
0.0837133 -0.0992056 0.105 255 128 0
-0.0216752 0.107429 0.105 255 128 0
0.0675611 0.00796903 0.105 255 128 0
0.00630891 0.124057 0.105 255 128 0
0.0449163 -0.0603839 0.105 255 128 0
-0.0286418 0.0694303 0.105 255 128 0
-0.0959896 0.0414539 0.105 255 128 0
0.0413301 0.0133665 0.105 255 128 0
0.0586771 0.144714 0.105 255 128 0
-0.0330632 -0.118048 0.105 255 128 0
-0.021613 0.100354 0.105 255 128 0
-0.033302 -0.00884695 0.105 255 128 0
-0.0340323 -0.0726912 0.105 255 128 0
0.0028813 -0.143921 0.105 255 128 0
-0.0660991 0.0415479 0.105 255 128 0
0.0892124 -0.048513 0.105 255 128 0
-0.0866272 0.0238095 0.105 255 128 0
-0.00958657 -0.0933407 0.105 255 128 0
-0.0882854 -0.0425911 0.105 255 128 0
-0.00331962 -0.100573 0.105 255 128 0
0.088184 0.0989789 0.105 255 128 0
0.0302622 -0.143103 0.105 255 128 0
0.0831051 0.139935 0.105 255 128 0
-0.0864916 0.00510223 0.105 255 128 0
-0.00474177 -0.147781 0.105 255 128 0
0.0571555 0.0278832 0.105 255 128 0
0.0568849 0.112747 0.105 255 128 0
0.0293578 0.0231239 0.105 255 128 0
0.00139407 -0.0671658 0.105 255 128 0
-0.0547753 -0.115436 0.105 255 128 0
0.0913349 -0.024928 0.105 255 128 0
0.0491504 0.110698 0.105 255 128 0
-0.0950206 -0.0835821 0.105 255 128 0
0.0139605 0.0516313 0.105 255 128 0
0.076042 0.0778784 0.105 255 128 0
0.0504698 -0.0091108 0.105 255 128 0
0.0775331 0.00427417 0.105 255 128 0
0.0540399 -0.148223 0.105 255 128 0
0.0426746 -0.0382225 0.105 255 128 0
0.0902667 0.135876 0.105 255 128 0
-0.0610751 0.0686214 0.105 255 128 0
-0.00305608 0.0278219 0.105 255 128 0
-0.0960778 0.0767654 0.105 255 128 0
-0.0770845 -0.0131706 0.105 255 128 0
0.0507951 0.0336751 0.105 255 128 0
-0.054105 0.0682643 0.105 255 128 0
0.0251073 0.115655 0.105 255 128 0
-0.00401478 0.0871145 0.105 255 128 0
-0.0682396 -0.0842509 0.105 255 128 0
-0.0843554 0.0549682 0.105 255 128 0
0.0516429 -0.104289 0.105 255 128 0
-0.0773771 -0.102651 0.105 255 128 0
0.0639383 -0.0732828 0.105 255 128 0
0.0477948 0.14402 0.105 255 128 0
-0.0269498 -0.0704829 0.105 255 128 0
0.00574235 -0.123234 0.105 255 128 0
-0.0863312 -0.128935 0.105 255 128 0
-0.0958445 -0.0786504 0.105 255 128 0
0.0544717 -0.0255824 0.105 255 128 0
-0.00208703 0.0861016 0.105 255 128 0
0.0658519 0.0346463 0.105 255 128 0
0.0153081 -0.0340878 0.105 255 128 0
-0.0455065 -0.144075 0.105 255 128 0
0.0838785 -0.039832 0.105 255 128 0
-0.075602 0.0724317 0.105 255 128 0
0.0940889 -0.0217358 0.105 255 128 0
0.0154357 0.138034 0.105 255 128 0
0.0600841 0.0646495 0.105 255 128 0
0.0226226 0.0660867 0.105 255 128 0
0.0364944 -0.0738603 0.105 255 128 0
-0.066619 0.0564599 0.105 255 128 0
0.054091 -0.0300319 0.105 255 128 0
-0.0261947 0.139425 0.105 255 128 0
-0.0465773 0.145575 0.105 255 128 0
0.0523077 0.104257 0.105 255 128 0
-0.045393 0.13787 0.105 255 128 0
0.0875145 -0.0916978 0.105 255 128 0
0.0017104 0.012895 0.105 255 128 0
0.0351899 0.0496565 0.105 255 128 0
0.0635902 0.0853146 0.105 255 128 0
-0.0393487 0.118221 0.105 255 128 0
-0.0849367 -0.120376 0.105 255 128 0
-0.0730592 -0.0287398 0.105 255 128 0
0.0463689 -0.0531397 0.105 255 128 0
0.0180311 -0.093749 0.105 255 128 0
0.0555367 -0.00185654 0.105 255 128 0
0.00814693 -0.0235955 0.105 255 128 0
0.0458405 -0.00314962 0.105 255 128 0
0.0671746 -0.1025 0.105 255 128 0
0.0531639 0.0503943 0.105 255 128 0
-0.0561332 0.0260059 0.105 255 128 0
-0.0384181 0.110581 0.105 255 128 0
-0.0917973 -0.00958853 0.105 255 128 0
0.0203592 -0.105053 0.105 255 128 0
0.0994038 0.109637 0.105 255 128 0
-0.0219214 0.087895 0.105 255 128 0
-0.00668525 0.00488884 0.105 255 128 0
-0.0108646 -0.149356 0.105 255 128 0
-0.0533811 0.128692 0.105 255 128 0
0.0713063 0.0757534 0.105 255 128 0
0.0834063 -0.0910491 0.105 255 128 0
-0.0393145 -0.0112119 0.105 255 128 0
-0.0340338 0.0789863 0.105 255 128 0
-0.0429201 0.0145858 0.105 255 128 0
0.0045759 0.0019586 0.105 255 128 0
0.0451877 0.022918 0.105 255 128 0
0.0199661 0.0832599 0.105 255 128 0
-0.0830962 -0.0418388 0.105 255 128 0
0.081132 0.0662578 0.105 255 128 0
0.0619566 -0.128277 0.105 255 128 0
0.056813 -0.104544 0.105 255 128 0
-0.0664458 0.101943 0.105 255 128 0
0.0425714 -0.0731221 0.105 255 128 0
-0.0250054 -0.0871896 0.105 255 128 0
-0.0749229 0.0592704 0.105 255 128 0
0.0552895 -0.119601 0.105 255 128 0
0.0693384 -0.116311 0.105 255 128 0
-0.0569572 0.13337 0.105 255 128 0
-0.0144838 -0.145142 0.105 255 128 0
-0.0706592 0.0714181 0.105 255 128 0
-0.0956848 0.109273 0.105 255 128 0
0.0970716 0.074226 0.105 255 128 0
-0.0420778 -0.0312624 0.105 255 128 0
0.0571863 -0.0144849 0.105 255 128 0
0.023079 -0.0685254 0.105 255 128 0
-0.0379648 0.0961624 0.105 255 128 0
-0.0552948 0.0057797 0.105 255 128 0
0.0545414 -0.125461 0.105 255 128 0
-0.0891935 -0.131333 0.105 255 128 0
0.0217801 0.133162 0.105 255 128 0
0.0204231 0.139141 0.105 255 128 0
-0.0340412 0.111195 0.105 255 128 0
-0.0279864 -0.117085 0.105 255 128 0
0.0856784 0.0836786 0.105 255 128 0
-0.0635824 0.0483368 0.105 255 128 0
0.0998464 0.0670855 0.105 255 128 0
0.0995689 0.00732014 0.105 255 128 0
0.0218899 -0.0946006 0.105 255 128 0
-0.0945862 -0.0753065 0.105 255 128 0
-0.0585103 0.138792 0.105 255 128 0
-0.00498274 0.0995344 0.105 255 128 0
0.0380547 0.147797 0.105 255 128 0
0.013371 0.135058 0.105 255 128 0
0.0431324 -0.0889151 0.105 255 128 0
-0.0289253 -0.131915 0.105 255 128 0
0.0114864 0.067188 0.105 255 128 0
0.0982666 0.0996132 0.105 255 128 0
-0.0615674 -0.0188413 0.105 255 128 0
-0.000685902 0.128192 0.105 255 128 0
-0.0878827 -0.129832 0.105 255 128 0
0.0427435 0.0608356 0.105 255 128 0
0.0534305 -0.00206733 0.105 255 128 0
-0.0900451 -0.119672 0.105 255 128 0
-0.0455244 0.0230393 0.105 255 128 0
0.0357802 -0.112948 0.105 255 128 0
-0.0414809 0.0327162 0.105 255 128 0
0.0894106 0.0245216 0.105 255 128 0
-0.0745036 -0.0491458 0.105 255 128 0
0.00807391 -0.0453712 0.105 255 128 0
-0.0295138 0.00194502 0.105 255 128 0
-0.0556651 -0.0127712 0.105 255 128 0
0.0835464 0.00241492 0.105 255 128 0
-0.00740419 0.0704604 0.105 255 128 0
0.00223818 -0.124613 0.105 255 128 0
-0.0236796 -0.072783 0.105 255 128 0
0.0154534 0.056691 0.105 255 128 0
-0.0871157 0.147003 0.105 255 128 0
-0.0388266 0.0624941 0.105 255 128 0
-0.0102492 -0.132058 0.105 255 128 0
0.0313088 -0.106403 0.105 255 128 0
0.0745685 -0.075538 0.105 255 128 0
0.0576543 -0.111829 0.105 255 128 0
-0.0151102 0.0518159 0.105 255 128 0
0.076566 0.0284436 0.105 255 128 0
-0.0581195 -0.062803 0.105 255 128 0
0.0949888 0.101276 0.105 255 128 0
0.0996506 0.140004 0.105 255 128 0
0.00737979 -0.124007 0.105 255 128 0
-0.015998 -0.127375 0.105 255 128 0
-0.065344 0.0808187 0.105 255 128 0
0.0932078 -0.019612 0.105 255 128 0
0.0399726 0.0232593 0.105 255 128 0
-0.053633 0.143025 0.105 255 128 0
0.0543231 -0.055859 0.105 255 128 0
-0.0476618 0.0180392 0.105 255 128 0
0.0875031 -0.0163546 0.105 255 128 0
0.0470101 0.0404788 0.105 255 128 0
0.00810281 -0.118397 0.105 255 128 0
0.0433093 0.0173359 0.105 255 128 0
-0.0223392 0.0387981 0.105 255 128 0
-0.0784347 0.113887 0.105 255 128 0
0.0964207 0.0897886 0.105 255 128 0
0.00949766 -0.11751 0.105 255 128 0
-0.0163693 0.0203395 0.105 255 128 0
0.0828401 0.0982449 0.105 255 128 0
0.0844025 -0.126655 0.105 255 128 0
0.000970404 -0.079479 0.105 255 128 0
0.00294479 -0.147932 0.105 255 128 0
-0.0563098 0.0291935 0.105 255 128 0
0.0242514 0.110833 0.105 255 128 0
0.068351 -0.13883 0.105 255 128 0
0.0475685 -0.0880023 0.105 255 128 0
-0.0118918 -0.109768 0.105 255 128 0
-0.0991045 -0.0311162 0.105 255 128 0
0.00590063 0.0726634 0.105 255 128 0
-0.0384859 -0.0870047 0.105 255 128 0
-0.0972209 0.07243 0.105 255 128 0
-0.092664 -0.0824452 0.105 255 128 0
-0.0678951 -0.133802 0.105 255 128 0
-0.0821263 -0.0107343 0.105 255 128 0
0.0450445 -0.00553588 0.105 255 128 0
0.0757643 0.0308155 0.105 255 128 0
0.0442708 0.0687966 0.105 255 128 0
0.029463 0.090675 0.105 255 128 0
-0.00977423 0.103038 0.105 255 128 0
-0.0653379 0.0260313 0.105 255 128 0
-0.0523266 0.00461649 0.105 255 128 0
0.0596908 0.0681568 0.105 255 128 0
-0.0233631 0.0516158 0.105 255 128 0
-0.0868063 -0.124803 0.105 255 128 0
0.0712198 0.0592239 0.105 255 128 0
-0.0431017 -0.00185598 0.105 255 128 0
0.0997982 -0.0742294 0.105 255 128 0
-0.00391124 0.126101 0.105 255 128 0
0.0831589 0.015373 0.105 255 128 0
0.0204168 0.0850097 0.105 255 128 0
0.0804103 0.021749 0.105 255 128 0
0.009992 -0.0325012 0.105 255 128 0
-0.0637672 -0.132103 0.105 255 128 0
0.0273514 0.146774 0.105 255 128 0
-0.00802186 0.140374 0.105 255 128 0
-0.0320626 -0.109054 0.105 255 128 0
-0.050509 -0.0261359 0.105 255 128 0
0.0163278 -0.041661 0.105 255 128 0
-0.0596036 -0.0770667 0.105 255 128 0
0.0381632 -0.141539 0.105 255 128 0
0.0597225 0.112199 0.105 255 128 0
0.0872878 -0.0492826 0.105 255 128 0
-0.0919989 -0.142014 0.105 255 128 0
-0.082668 0.0131209 0.105 255 128 0
-0.0837991 0.0403442 0.105 255 128 0
0.000483191 -0.0814556 0.105 255 128 0
0.0052463 0.120092 0.105 255 128 0
-0.0537917 -0.0991529 0.105 255 128 0
0.0475268 -0.0651526 0.105 255 128 0
-0.0636001 0.131552 0.105 255 128 0
0.0431151 -0.0278885 0.105 255 128 0
-0.0416197 -0.0185853 0.105 255 128 0
-0.0958342 -0.136689 0.105 255 128 0
0.0523969 0.0129116 0.105 255 128 0
0.0977984 -0.0856983 0.105 255 128 0
-0.0571124 0.042905 0.105 255 128 0
-0.0823051 0.0261514 0.105 255 128 0
0.0955318 0.146597 0.105 255 128 0
0.046061 -0.0527701 0.105 255 128 0
-0.0540066 -0.0161732 0.105 255 128 0
-0.0423849 -0.10575 0.105 255 128 0
0.0175785 0.120683 0.105 255 128 0
0.0268377 -0.0412758 0.105 255 128 0
0.0248686 -0.058874 0.105 255 128 0
-0.0930623 -0.0383995 0.105 255 128 0
0.0956009 0.0669511 0.105 255 128 0
-0.0323204 -0.101088 0.105 255 128 0
0.0676138 -0.0259455 0.105 255 128 0
0.0820236 0.144989 0.105 255 128 0
0.0108396 0.01061 0.105 255 128 0
-0.0524977 0.0810656 0.105 255 128 0
-0.0681492 0.0670311 0.105 255 128 0
0.00887801 0.0265636 0.105 255 128 0
0.0469298 0.143613 0.105 255 128 0
-0.041086 0.0341089 0.105 255 128 0
-0.0268818 0.0904594 0.105 255 128 0
-0.0767143 0.0117554 0.105 255 128 0
0.0282873 0.0686518 0.105 255 128 0
-0.00426041 -0.130425 0.105 255 128 0
0.0942401 -0.0920937 0.105 255 128 0
0.0317268 -0.0182616 0.105 255 128 0
0.0877603 0.139867 0.105 255 128 0
0.0141569 0.00855956 0.105 255 128 0
0.0364062 -0.109189 0.105 255 128 0
-0.0732773 -0.0540834 0.105 255 128 0
0.0302678 -0.07291 0.105 255 128 0
0.0699129 0.021924 0.105 255 128 0
0.0854492 0.00160796 0.105 255 128 0
0.0148447 -0.0127146 0.105 255 128 0
-0.0346486 0.105828 0.105 255 128 0
0.00373658 -0.0755064 0.105 255 128 0
0.0750359 0.0411036 0.105 255 128 0
-0.0822337 0.127713 0.105 255 128 0
-0.0417985 0.0992826 0.105 255 128 0
0.00647993 0.050478 0.105 255 128 0
-0.0380954 0.0641165 0.105 255 128 0
0.0113079 -0.0489685 0.105 255 128 0
-0.0219433 0.0234432 0.105 255 128 0
0.0290364 -0.0610079 0.105 255 128 0
0.0189985 0.134311 0.105 255 128 0
-0.0488634 0.0855195 0.105 255 128 0
-0.0979254 0.0293124 0.105 255 128 0
0.0424374 -0.049951 0.105 255 128 0
-0.0106486 0.115604 0.105 255 128 0
-0.0196843 -0.0436352 0.105 255 128 0
-0.0243433 -0.124621 0.105 255 128 0
0.0536476 -0.0520348 0.105 255 128 0
0.0328512 0.14961 0.105 255 128 0
-0.0342801 -0.11564 0.105 255 128 0
-0.0507672 0.117061 0.105 255 128 0
-0.0783405 0.0683493 0.105 255 128 0
-0.0974308 0.0163576 0.105 255 128 0
-0.0267404 0.0396403 0.105 255 128 0
-0.0149224 -0.11718 0.105 255 128 0
-0.0692829 0.0405414 0.105 255 128 0
0.0274556 0.117823 0.105 255 128 0
0.00667572 -0.0237021 0.105 255 128 0
0.0998448 0.0750347 0.105 255 128 0
0.0907804 -0.13794 0.105 255 128 0
-0.0977551 0.116823 0.105 255 128 0
0.078452 0.0811953 0.105 255 128 0
-0.061297 0.115756 0.105 255 128 0
-0.0707709 -0.0327484 0.105 255 128 0
-0.0223469 -0.149433 0.105 255 128 0
0.0608191 0.0356225 0.105 255 128 0
0.0432943 0.0979111 0.105 255 128 0
0.0989301 0.0172273 0.105 255 128 0
0.0542369 -0.0741777 0.105 255 128 0
0.0875232 0.050835 0.105 255 128 0
0.0897627 -0.141891 0.105 255 128 0
0.0435969 0.0441661 0.105 255 128 0
-0.0470202 0.0883102 0.105 255 128 0
-0.0927639 0.0386509 0.105 255 128 0
0.0653216 0.053277 0.105 255 128 0
0.00241022 -0.0181033 0.105 255 128 0
-0.00487331 -0.0699782 0.105 255 128 0
-0.00166936 0.0539706 0.105 255 128 0
-0.0946417 -0.0889364 0.105 255 128 0
0.0183994 0.128555 0.105 255 128 0
0.0240641 -0.143884 0.105 255 128 0
-0.0855246 -0.0873147 0.105 255 128 0
0.0963124 -0.0777133 0.105 255 128 0
-0.0825185 0.119922 0.105 255 128 0
-0.0201445 0.0509403 0.105 255 128 0
-0.0487541 0.0977589 0.105 255 128 0
0.0699176 0.118127 0.105 255 128 0
0.0735831 0.0518695 0.105 255 128 0
0.0217461 0.0223143 0.105 255 128 0
-0.00128265 0.0692952 0.105 255 128 0
0.0962518 -0.142421 0.105 255 128 0
0.096815 0.0519528 0.105 255 128 0
0.00600713 -0.0363893 0.105 255 128 0
-0.0753658 -0.0889271 0.105 255 128 0
-0.0752266 -0.114912 0.105 255 128 0
-0.0245564 0.0823623 0.105 255 128 0
-0.0493054 -0.129453 0.105 255 128 0
0.0362531 0.130367 0.105 255 128 0
-0.0679544 -0.108939 0.105 255 128 0
0.0275898 0.00426884 0.105 255 128 0
0.0441174 -0.135982 0.105 255 128 0
-0.0556398 -0.119532 0.105 255 128 0
0.0688889 -0.0399888 0.105 255 128 0
-0.0935345 0.0645904 0.105 255 128 0
-0.0852535 0.113409 0.105 255 128 0
0.0578643 -0.0283374 0.105 255 128 0
0.0464559 -0.130916 0.105 255 128 0
-0.0337337 0.0188773 0.105 255 128 0
-0.074543 -0.114386 0.105 255 128 0
0.077457 0.131391 0.105 255 128 0
0.0433872 0.0262267 0.105 255 128 0
0.0993589 -0.124353 0.105 255 128 0
-0.0237255 -0.146661 0.105 255 128 0
-0.0945152 0.0158706 0.105 255 128 0
0.0537146 0.132292 0.105 255 128 0
-0.000510494 -0.0696936 0.105 255 128 0
-0.096199 0.0793671 0.105 255 128 0
-0.0735647 -0.120437 0.105 255 128 0
-0.0774495 0.0418927 0.105 255 128 0
0.0558986 -0.133963 0.105 255 128 0
-0.0530962 0.0752063 0.105 255 128 0
-0.0698909 0.0280098 0.105 255 128 0
0.0219247 -0.0536156 0.105 255 128 0
0.0127078 0.0551389 0.105 255 128 0
0.0775478 -0.0156472 0.105 255 128 0
0.018418 -0.118833 0.105 255 128 0
-0.0980691 0.0564616 0.105 255 128 0
0.0775917 0.0508424 0.105 255 128 0
-0.0385345 0.148343 0.105 255 128 0
0.0683446 0.120994 0.105 255 128 0
-0.0593665 -0.0182371 0.105 255 128 0
-0.0597941 -0.123238 0.105 255 128 0
0.0437795 -0.133754 0.105 255 128 0
0.00963254 -0.133001 0.105 255 128 0
-0.0887429 0.142618 0.105 255 128 0
-0.0942808 0.015548 0.105 255 128 0
0.0635995 -0.0706854 0.105 255 128 0
0.00221519 -0.139086 0.105 255 128 0
-0.0585579 0.0977981 0.105 255 128 0
0.0430411 -0.0491097 0.105 255 128 0
-0.0349929 -0.102026 0.105 255 128 0
-0.0104015 0.0268882 0.105 255 128 0
-0.0825334 -0.132999 0.105 255 128 0
-0.0413146 -0.0935514 0.105 255 128 0
0.00249153 -0.121928 0.105 255 128 0
-0.00653526 -0.0249985 0.105 255 128 0
0.0840453 0.130691 0.105 255 128 0
-0.0284599 0.0284236 0.105 255 128 0
0.0876823 0.121853 0.105 255 128 0
-0.0631943 0.113968 0.105 255 128 0
-0.0253591 -0.125713 0.105 255 128 0
0.00923431 -0.00757382 0.105 255 128 0
-0.0209233 0.0197677 0.105 255 128 0
-0.0492985 -0.0705765 0.105 255 128 0
-0.0383055 0.126695 0.105 255 128 0
0.0250744 0.0628791 0.105 255 128 0
0.0528627 0.137837 0.105 255 128 0
0.00320236 -0.0951027 0.105 255 128 0
-0.0354193 -0.0442953 0.105 255 128 0
-0.0876492 0.115353 0.105 255 128 0
-0.0854917 -0.0921509 0.105 255 128 0
-0.0210264 0.0112115 0.105 255 128 0
0.0592862 0.140444 0.105 255 128 0
0.0508107 -0.0369993 0.105 255 128 0
-0.0920725 0.0526009 0.105 255 128 0
0.0615637 -0.00817995 0.105 255 128 0
0.00551395 0.0980801 0.105 255 128 0
-0.1 0.025559 0.100592 255 128 0
-0.1 -0.0659168 0.0987141 255 128 0
-0.1 0.100323 0.0996387 255 128 0
-0.1 -0.00698642 0.0973331 255 128 0
-0.1 0.0238651 0.0973646 255 128 0
-0.1 -0.142641 0.104595 255 128 0
-0.1 0.135073 0.097078 255 128 0
-0.1 0.114229 0.098128 255 128 0
-0.1 -0.124934 0.101316 255 128 0
-0.1 0.111331 0.0964145 255 128 0
-0.1 0.0784293 0.100269 255 128 0
-0.1 -0.0103539 0.0992885 255 128 0
-0.1 0.0129359 0.103468 255 128 0
-0.1 -0.0119876 0.104877 255 128 0
-0.1 0.139707 0.102788 255 128 0
-0.1 -0.111373 0.103617 255 128 0
-0.1 -0.0371218 0.0964267 255 128 0
-0.1 -0.147083 0.100107 255 128 0
-0.1 0.0283434 0.0992917 255 128 0
-0.1 0.0168091 0.0961735 255 128 0
-0.1 0.0431398 0.0954143 255 128 0
-0.1 0.0265923 0.0961809 255 128 0
-0.1 -0.105037 0.0977734 255 128 0
-0.1 0.133309 0.097392 255 128 0
-0.1 -0.0724229 0.100142 255 128 0
-0.1 0.0857769 0.103485 255 128 0
-0.1 0.0967194 0.0984141 255 128 0
-0.1 -0.0159061 0.0986215 255 128 0
-0.1 0.0763392 0.09738 255 128 0
-0.1 0.110637 0.0992711 255 128 0
0.1 -0.0472381 0.10441 255 128 0
0.1 -0.0297189 0.104049 255 128 0
0.1 -0.0804417 0.0984008 255 128 0
0.1 -0.0150513 0.0979731 255 128 0
0.1 -0.0249609 0.0980831 255 128 0
0.1 0.0279556 0.103095 255 128 0
0.1 0.0991669 0.0983975 255 128 0
0.1 -0.0194371 0.098917 255 128 0
0.1 -0.033189 0.0957134 255 128 0
0.1 -0.0640474 0.100981 255 128 0
0.1 0.137166 0.0979658 255 128 0
0.1 -0.12437 0.103635 255 128 0
0.1 -0.0350894 0.104482 255 128 0
0.1 -0.0123438 0.0965214 255 128 0
0.1 -0.0613287 0.103764 255 128 0
0.1 -0.0710545 0.101649 255 128 0
0.1 -0.000913795 0.0978944 255 128 0
0.1 -0.148765 0.0994635 255 128 0
0.1 0.00458277 0.0966264 255 128 0
0.1 -0.0183133 0.0956471 255 128 0
0.1 0.0941099 0.10231 255 128 0
0.1 -0.0465814 0.0994673 255 128 0
0.1 0.120953 0.103616 255 128 0
0.1 0.145843 0.095143 255 128 0
0.1 -0.1029 0.103712 255 128 0
0.1 -0.147148 0.0984838 255 128 0
0.1 -0.0762801 0.0983205 255 128 0
0.1 0.0807966 0.103944 255 128 0
0.1 -0.120843 0.0959724 255 128 0
0.1 0.0307319 0.102858 255 128 0
-0.0505627 0.15 0.0975054 255 128 0
-0.0277009 0.15 0.104403 255 128 0
-0.0709577 0.15 0.102659 255 128 0
0.00162539 0.15 0.103595 255 128 0
-0.0329135 0.15 0.101755 255 128 0
-0.072627 0.15 0.0950583 255 128 0
0.0754592 0.15 0.101118 255 128 0
-0.0457585 0.15 0.100213 255 128 0
0.0198756 0.15 0.103042 255 128 0
0.00982036 0.15 0.103481 255 128 0
0.0662713 0.15 0.0984774 255 128 0
0.0102879 0.15 0.0994976 255 128 0
-0.0459117 0.15 0.101089 255 128 0
-0.0051173 0.15 0.101111 255 128 0
-0.00370699 0.15 0.101524 255 128 0
-0.0958861 0.15 0.0996297 255 128 0
0.00726238 0.15 0.101777 255 128 0
-0.0834176 0.15 0.096355 255 128 0
0.0422912 0.15 0.103969 255 128 0
0.0680519 0.15 0.101175 255 128 0
0.00234254 -0.15 0.103119 255 128 0
-0.0137798 -0.15 0.0990164 255 128 0
-0.0854656 -0.15 0.103613 255 128 0
0.0192788 -0.15 0.102749 255 128 0
-0.079467 -0.15 0.103681 255 128 0
0.0758604 -0.15 0.103548 255 128 0
-0.0350214 -0.15 0.0974454 255 128 0
0.0201511 -0.15 0.101031 255 128 0
-0.0625524 -0.15 0.103818 255 128 0
-0.0646013 -0.15 0.102875 255 128 0
0.0677514 -0.15 0.104942 255 128 0
0.0838156 -0.15 0.095762 255 128 0
0.0688674 -0.15 0.102625 255 128 0
0.0777641 -0.15 0.0991869 255 128 0
0.0972283 -0.15 0.0969531 255 128 0
0.0552864 -0.15 0.10159 255 128 0
0.0891121 -0.15 0.101653 255 128 0
0.0750593 -0.15 0.104596 255 128 0
-0.0715424 -0.15 0.102532 255 128 0
0.0312245 -0.15 0.104497 255 128 0
0.0107232 -0.145535 0 255 128 0
0.0598183 -0.154188 0 255 128 0
-0.024265 -0.153541 0 255 128 0
0.0858336 -0.151115 0 255 128 0
0.0589559 -0.149472 0 255 128 0
-0.00658946 -0.153144 0 255 128 0
0.0679071 -0.150983 0 255 128 0
-0.034259 -0.1526 0 255 128 0
0.0882628 -0.14627 0 255 128 0
-0.00340774 -0.148488 0 255 128 0
-0.0243372 -0.145484 0 255 128 0
0.0394225 -0.152657 0 255 128 0
-0.0903588 -0.152803 0 255 128 0
0.0172203 -0.145296 0 255 128 0
0.0336877 -0.152629 0 255 128 0
0.0447652 -0.146683 0 255 128 0
-0.073644 -0.146524 0 255 128 0
-0.00256146 -0.150226 0 255 128 0
0.0847092 -0.148776 0 255 128 0
-0.0961833 -0.150688 0 255 128 0
0.0381475 -0.152493 0.1 255 128 0
0.0969267 -0.146114 0.1 255 128 0
-0.0538754 -0.146221 0.1 255 128 0
-0.0376811 -0.149826 0.1 255 128 0
-0.0339811 -0.14952 0.1 255 128 0
0.00106859 -0.147676 0.1 255 128 0
0.0370229 -0.154311 0.1 255 128 0
-0.0354068 -0.154365 0.1 255 128 0
0.0484564 -0.151151 0.1 255 128 0
0.0608276 -0.150802 0.1 255 128 0
0.0475866 -0.147349 0.1 255 128 0
0.00315228 -0.154931 0.1 255 128 0
-0.0140344 -0.154011 0.1 255 128 0
-0.0868726 -0.149426 0.1 255 128 0
0.043433 -0.145986 0.1 255 128 0
0.0354994 -0.146108 0.1 255 128 0
-0.0023288 -0.154459 0.1 255 128 0
-0.0900269 -0.145829 0.1 255 128 0
0.0253796 -0.151287 0.1 255 128 0
0.00820946 -0.145999 0.1 255 128 0
-0.1 -0.152583 0.0400334 255 128 0
-0.1 -0.145416 0.0123973 255 128 0
-0.1 -0.150989 0.0686761 255 128 0
-0.1 -0.154265 0.015583 255 128 0
-0.1 -0.14741 0.0478894 255 128 0
-0.1 -0.147283 0.0935972 255 128 0
-0.1 -0.152965 0.0800764 255 128 0
-0.1 -0.153084 0.00909624 255 128 0
-0.1 -0.152782 0.0744302 255 128 0
-0.1 -0.147016 0.0554355 255 128 0
0.1 -0.15116 0.0352911 255 128 0
0.1 -0.148312 0.0191297 255 128 0
0.1 -0.146767 0.0340574 255 128 0
0.1 -0.15035 0.0919501 255 128 0
0.1 -0.148308 0.0992494 255 128 0
0.1 -0.152948 0.0178578 255 128 0
0.1 -0.14891 0.0732289 255 128 0
0.1 -0.148733 0.0205787 255 128 0
0.1 -0.149477 0.0127907 255 128 0
0.1 -0.146811 0.0620032 255 128 0
0.00289392 -0.145 0.0834639 255 128 0
0.0343797 -0.145 0.0134474 255 128 0
0.0908051 -0.145 0.0806891 255 128 0
0.0774615 -0.145 0.0186803 255 128 0
0.0543813 -0.145 0.070083 255 128 0
-0.0594428 -0.145 0.0022159 255 128 0
-0.00809631 -0.145 0.0990323 255 128 0
0.0895335 -0.145 0.00351421 255 128 0
0.00428908 -0.145 0.0707559 255 128 0
-0.0632481 -0.145 0.0479589 255 128 0
-0.0826001 -0.145 0.0197542 255 128 0
0.060054 -0.145 0.00252517 255 128 0
0.0704869 -0.145 0.0534507 255 128 0
-0.0844411 -0.145 0.0624403 255 128 0
-0.0716648 -0.145 0.0552287 255 128 0
-0.00303453 -0.145 0.0895631 255 128 0
-0.0910638 -0.145 0.0192584 255 128 0
-0.0312325 -0.145 0.0685183 255 128 0
0.0551993 -0.145 0.0492169 255 128 0
-0.0377547 -0.145 0.00697063 255 128 0
0.0408747 -0.145 0.0845187 255 128 0
-0.0716035 -0.145 0.0956161 255 128 0
0.0568294 -0.145 0.0184278 255 128 0
-0.0567825 -0.145 0.036788 255 128 0
0.0571837 -0.145 0.0140164 255 128 0
0.0825631 -0.145 0.0352414 255 128 0
0.0460717 -0.145 0.0985292 255 128 0
-0.0809463 -0.145 0.0510874 255 128 0
0.00858406 -0.145 0.093043 255 128 0
0.0505728 -0.145 0.0312589 255 128 0
0.0437728 -0.145 0.009716 255 128 0
0.0443885 -0.145 0.0454393 255 128 0
-0.0870147 -0.145 0.0572906 255 128 0
-0.00919096 -0.145 0.010273 255 128 0
-0.0401617 -0.145 0.0368009 255 128 0
-0.0164285 -0.145 0.0399215 255 128 0
-0.0321138 -0.145 0.00916101 255 128 0
0.0821333 -0.145 0.0557594 255 128 0
0.0554241 -0.145 0.0343009 255 128 0
-0.065881 -0.145 0.0513089 255 128 0
0.0176107 -0.145 0.0708784 255 128 0
-0.0315992 -0.145 0.0582476 255 128 0
-0.0990069 -0.145 0.0204774 255 128 0
0.0473205 -0.145 0.0607376 255 128 0
-0.0465985 -0.145 0.0215101 255 128 0
0.0820136 -0.145 0.0189288 255 128 0
-0.00663132 -0.145 0.0834953 255 128 0
-0.0719795 -0.145 0.0223355 255 128 0
0.0226164 -0.145 0.0476264 255 128 0
0.0624258 -0.145 0.00762942 255 128 0
-0.00846837 -0.145 0.0841348 255 128 0
0.0334486 -0.145 0.0472123 255 128 0
0.0425112 -0.145 0.0949628 255 128 0
-0.0326657 -0.145 0.0303089 255 128 0
0.0818449 -0.145 0.0060954 255 128 0
-0.0921366 -0.145 0.0357684 255 128 0
0.00810001 -0.145 0.0024881 255 128 0
0.0690117 -0.145 0.0638058 255 128 0
0.0280603 -0.145 0.0839422 255 128 0
-0.0373459 -0.145 0.0625202 255 128 0
-0.0960334 -0.145 0.0471061 255 128 0
0.0156197 -0.145 0.0960085 255 128 0
-0.0351527 -0.145 0.0148685 255 128 0
0.0266329 -0.145 0.0570742 255 128 0
-0.0293315 -0.145 0.0367613 255 128 0
0.0958308 -0.145 0.0597967 255 128 0
0.000973144 -0.145 0.0947798 255 128 0
-0.0767621 -0.145 0.0960086 255 128 0
0.0585629 -0.145 0.0733733 255 128 0
-0.0374401 -0.145 0.0395163 255 128 0
0.0602272 -0.145 0.0320616 255 128 0
0.0487118 -0.145 0.0495703 255 128 0
-0.0725726 -0.145 0.0571935 255 128 0
0.0168256 -0.145 0.0294694 255 128 0
0.0586092 -0.145 0.0230668 255 128 0
0.0605648 -0.145 0.0991975 255 128 0
0.0551413 -0.145 0.0456071 255 128 0
0.0150654 -0.145 0.0125529 255 128 0
-0.0578525 -0.145 0.0473475 255 128 0
0.00793227 -0.145 0.0521417 255 128 0
0.0017898 -0.145 0.0283792 255 128 0
-0.078727 -0.145 0.0547129 255 128 0
0.0651193 -0.145 0.0185201 255 128 0
0.0677737 -0.145 0.025897 255 128 0
-0.0670994 -0.145 0.0267902 255 128 0
0.0196706 -0.145 0.0521483 255 128 0
0.0683955 -0.145 0.0970386 255 128 0
-0.0990693 -0.145 0.0842379 255 128 0
0.00432111 -0.145 0.0130313 255 128 0
-0.0859028 -0.145 0.0120547 255 128 0
-0.0908768 -0.145 0.0305639 255 128 0
-0.0710123 -0.145 0.0583795 255 128 0
-0.0731369 -0.145 0.0172841 255 128 0
0.0965281 -0.145 0.0912456 255 128 0
-0.0142313 -0.145 0.00965412 255 128 0
-0.0511324 -0.145 0.067551 255 128 0
0.00207547 -0.145 0.0584176 255 128 0
-0.0498346 -0.145 0.0896095 255 128 0
0.0639446 -0.145 0.0449649 255 128 0
0.0534643 -0.145 0.0277533 255 128 0
-0.0849034 -0.145 0.0450957 255 128 0
-0.00314281 -0.145 0.082283 255 128 0
0.0156956 -0.145 0.0168187 255 128 0
-0.037952 -0.145 0.0757739 255 128 0
-0.077307 -0.145 0.0207555 255 128 0
-0.0961228 -0.145 0.0365805 255 128 0
-0.0544896 -0.145 0.0491576 255 128 0
-0.0609368 -0.145 0.0125588 255 128 0
0.0746576 -0.145 0.0478409 255 128 0
0.0990663 -0.145 0.0488554 255 128 0
-0.0482443 -0.145 0.017095 255 128 0
-0.0662756 -0.145 0.0944 255 128 0
0.0640696 -0.145 0.048001 255 128 0
-0.0209012 -0.145 0.0964918 255 128 0
-0.000101793 -0.145 0.00294641 255 128 0
0.0884065 -0.145 0.075539 255 128 0
0.0661679 -0.145 0.0662299 255 128 0
0.0243332 -0.145 0.0898109 255 128 0
0.0194433 -0.145 0.077406 255 128 0
-0.00293248 -0.145 0.08339 255 128 0
0.0619954 -0.145 0.0755807 255 128 0
0.0590235 -0.145 0.0894846 255 128 0
-0.0318224 -0.145 0.0275694 255 128 0
-0.0951952 -0.145 0.0213165 255 128 0
0.0416729 -0.145 0.0465247 255 128 0
0.0632681 -0.145 0.0317986 255 128 0
0.00202188 -0.145 0.0865937 255 128 0
0.0131486 -0.145 0.0759252 255 128 0
-0.0990303 -0.145 0.0876023 255 128 0
-0.0815788 -0.145 0.0834356 255 128 0
-0.0913882 -0.145 0.0789541 255 128 0
-0.0462596 -0.145 0.0975212 255 128 0
-0.0417425 -0.145 0.0949071 255 128 0
0.0932374 -0.145 0.0945272 255 128 0
0.0839474 -0.145 0.0182066 255 128 0
-0.0911539 -0.145 0.0998926 255 128 0
-0.0454661 -0.145 0.00433868 255 128 0
-0.0787176 -0.145 0.0431987 255 128 0
-0.060779 -0.145 0.0593365 255 128 0
-0.0988271 -0.145 0.0806875 255 128 0
-0.0738636 -0.145 0.0747708 255 128 0
-0.0371828 -0.145 0.0563917 255 128 0
-0.0628467 -0.145 0.037736 255 128 0
0.0643246 -0.145 0.0242861 255 128 0
0.0363521 -0.145 0.0782648 255 128 0
0.0489511 -0.145 0.0363913 255 128 0
0.00563306 -0.145 0.0978245 255 128 0
-0.0199676 -0.145 0.0395514 255 128 0
0.0409691 -0.145 0.0455339 255 128 0
0.0688686 -0.145 0.0715173 255 128 0
0.0652395 -0.145 0.0729288 255 128 0
0.0884839 -0.145 0.0384839 255 128 0
-0.0821707 -0.145 0.00872324 255 128 0
-0.0375753 -0.145 0.0259113 255 128 0
-0.0148369 -0.145 0.0535191 255 128 0
0.0120365 -0.145 0.0287678 255 128 0
-0.00201682 -0.145 0.0324413 255 128 0
-0.0335818 -0.145 0.046881 255 128 0
-0.0887282 -0.145 0.0534489 255 128 0
-0.0456205 -0.145 0.0230837 255 128 0
-0.0590229 -0.145 0.0195657 255 128 0
-0.096431 -0.145 0.0612019 255 128 0
-0.017788 -0.145 0.0531409 255 128 0
0.0841923 -0.145 0.0583204 255 128 0
-0.0824364 -0.145 0.0198039 255 128 0
0.0104392 -0.145 0.0879067 255 128 0
-0.0829231 -0.145 0.0777261 255 128 0
0.0718896 -0.145 0.0432392 255 128 0
-0.0321801 -0.145 0.00527018 255 128 0
0.0524817 -0.145 0.084166 255 128 0
-0.0256444 -0.145 0.0168906 255 128 0
0.0930982 -0.145 0.0528987 255 128 0
-0.0574149 -0.145 0.0551016 255 128 0
0.0446791 -0.145 0.0466834 255 128 0
-0.0414853 -0.145 0.013663 255 128 0
0.0166075 -0.145 0.0134826 255 128 0
-0.0891369 -0.145 0.0796292 255 128 0
0.0444227 -0.145 0.0834092 255 128 0
-0.024501 -0.145 0.0111289 255 128 0
0.0788733 -0.145 0.0851889 255 128 0
0.0488214 -0.145 0.0278788 255 128 0
-0.0537193 -0.145 0.0533933 255 128 0
0.0508069 -0.145 0.0947002 255 128 0
0.000409343 -0.145 0.0558674 255 128 0
-0.0544991 -0.145 0.0618515 255 128 0
-0.0854341 -0.145 0.0734734 255 128 0
0.0589125 -0.145 0.0935369 255 128 0
-0.0361554 -0.145 0.0839493 255 128 0
0.0323541 -0.145 0.00268391 255 128 0
-0.0575229 -0.145 0.0824213 255 128 0
-0.027903 -0.145 0.011003 255 128 0
0.0819786 -0.145 0.0143806 255 128 0
0.0822504 -0.145 0.0974876 255 128 0
-0.0881887 -0.145 0.00158458 255 128 0
-0.0673185 -0.145 0.08214 255 128 0
0.00271591 -0.145 0.0770727 255 128 0
0.052548 -0.145 0.0652454 255 128 0
0.0375874 -0.145 0.0738508 255 128 0
-0.0984376 -0.145 0.0435349 255 128 0
-0.0130195 -0.145 0.0888186 255 128 0
0.0816873 -0.155 0.0476558 255 128 0
0.0269413 -0.155 0.00589959 255 128 0
0.0650848 -0.155 0.0384795 255 128 0
0.039805 -0.155 0.0998748 255 128 0
0.097341 -0.155 0.00160197 255 128 0
-0.0191829 -0.155 0.0274637 255 128 0
0.0428776 -0.155 0.0262695 255 128 0
-0.00446027 -0.155 0.0844088 255 128 0
0.0460444 -0.155 0.0920387 255 128 0
0.0773455 -0.155 0.0271982 255 128 0
-0.0265537 -0.155 0.0464849 255 128 0
-0.0900157 -0.155 0.0133405 255 128 0
0.0845481 -0.155 0.0973563 255 128 0
-0.00245063 -0.155 0.0715386 255 128 0
-0.0791419 -0.155 0.00731344 255 128 0
0.0859403 -0.155 0.0921484 255 128 0
0.0958424 -0.155 0.00404157 255 128 0
-0.0388573 -0.155 0.0929143 255 128 0
0.000162708 -0.155 0.0958158 255 128 0
-0.0291564 -0.155 0.0840293 255 128 0
0.00988594 -0.155 0.0438434 255 128 0
-0.0189953 -0.155 0.061006 255 128 0
-0.0622244 -0.155 0.0166887 255 128 0
0.034798 -0.155 0.0728387 255 128 0
-0.0596719 -0.155 0.0998381 255 128 0
0.0797987 -0.155 0.0238507 255 128 0
-0.0218317 -0.155 0.024916 255 128 0
0.0638056 -0.155 0.0618674 255 128 0
0.0922415 -0.155 0.0527894 255 128 0
-0.0611501 -0.155 0.069025 255 128 0
-0.0502193 -0.155 0.0143295 255 128 0
-0.0666298 -0.155 0.0733851 255 128 0
0.000604216 -0.155 0.0476056 255 128 0
0.00378922 -0.155 0.065106 255 128 0
0.0838529 -0.155 0.0734947 255 128 0
0.0693046 -0.155 0.0152217 255 128 0
0.0464652 -0.155 0.0908581 255 128 0
0.0475199 -0.155 0.0873397 255 128 0
-0.0308464 -0.155 0.0600482 255 128 0
-0.00109116 -0.155 0.0719107 255 128 0
-0.0919411 -0.155 0.00443086 255 128 0
-0.0647844 -0.155 0.0637356 255 128 0
0.0434612 -0.155 0.0287693 255 128 0
0.0721444 -0.155 0.073222 255 128 0
-0.0248917 -0.155 0.0166964 255 128 0
0.0204997 -0.155 0.030811 255 128 0
0.0891386 -0.155 0.0614252 255 128 0
-0.0687549 -0.155 0.0405051 255 128 0
0.0211575 -0.155 0.0189746 255 128 0
-0.0777987 -0.155 0.0717362 255 128 0
-0.0887581 -0.155 0.0415639 255 128 0
0.0824803 -0.155 0.0106584 255 128 0
0.0128026 -0.155 0.0492935 255 128 0
0.0302059 -0.155 0.0793168 255 128 0
0.0417626 -0.155 0.0345282 255 128 0
-0.0504144 -0.155 0.0518459 255 128 0
-0.0280757 -0.155 0.0575816 255 128 0
-0.000349107 -0.155 0.00680242 255 128 0
0.0749969 -0.155 0.08134 255 128 0
0.00833523 -0.155 0.03725 255 128 0
-0.0600269 -0.155 0.0207646 255 128 0
0.0828185 -0.155 0.00714127 255 128 0
-0.0384516 -0.155 0.0245659 255 128 0
0.0615573 -0.155 0.0922239 255 128 0
-0.0946622 -0.155 0.0675292 255 128 0
0.0791419 -0.155 0.0121298 255 128 0
0.061143 -0.155 0.0408216 255 128 0
-0.0488763 -0.155 0.00448196 255 128 0
-0.0309737 -0.155 0.0143054 255 128 0
-0.066455 -0.155 0.00808753 255 128 0
0.0313351 -0.155 0.061095 255 128 0
0.0116709 -0.155 0.0564984 255 128 0
0.00519487 -0.155 0.0423737 255 128 0
0.0358827 -0.155 0.0569431 255 128 0
0.0504959 -0.155 0.047407 255 128 0
0.0541916 -0.155 0.0158799 255 128 0
0.0229548 -0.155 0.0822588 255 128 0
-0.0617247 -0.155 0.0699722 255 128 0
0.0917997 -0.155 0.0472071 255 128 0
0.0336885 -0.155 0.0798328 255 128 0
-0.0176652 -0.155 0.0115541 255 128 0
0.0592869 -0.155 0.0932501 255 128 0
-0.0836235 -0.155 0.0664845 255 128 0
0.0987741 -0.155 0.0148999 255 128 0
-0.0745754 -0.155 0.0715803 255 128 0
0.02233 -0.155 0.00946814 255 128 0
0.0338455 -0.155 0.0408957 255 128 0
-0.0460565 -0.155 0.0267652 255 128 0
0.00571205 -0.155 0.0734674 255 128 0
0.0398659 -0.155 0.016031 255 128 0
-0.00221218 -0.155 0.0705852 255 128 0
-0.0458265 -0.155 0.0804822 255 128 0
0.0966709 -0.155 0.0885267 255 128 0
-0.0702599 -0.155 0.0388579 255 128 0
0.0678202 -0.155 0.0389268 255 128 0
-0.0702988 -0.155 0.0441312 255 128 0
0.0268348 -0.155 0.0868484 255 128 0
0.0574776 -0.155 0.0991058 255 128 0
-0.0361097 -0.155 0.0645746 255 128 0
-0.0975705 -0.155 0.0564175 255 128 0
0.0768116 -0.155 0.0129823 255 128 0
-0.0673593 -0.155 0.0166708 255 128 0
0.0324368 -0.155 0.0362937 255 128 0
0.0703814 -0.155 0.0255279 255 128 0
-0.069112 -0.155 0.081381 255 128 0
-0.0130818 -0.155 0.0838953 255 128 0
-0.072025 -0.155 0.0314059 255 128 0
0.0886614 -0.155 0.0414888 255 128 0
0.0177526 -0.155 0.0350706 255 128 0
-0.00307874 -0.155 0.0148833 255 128 0
0.0454812 -0.155 0.0397912 255 128 0
-0.0310857 -0.155 0.0493621 255 128 0
0.0994048 -0.155 0.0794317 255 128 0
0.00216495 -0.155 0.0884963 255 128 0
0.017376 -0.155 0.0548502 255 128 0
0.0526331 -0.155 0.0560721 255 128 0
-0.0296086 -0.155 0.0592626 255 128 0
-0.00735487 -0.155 0.047636 255 128 0
0.0436864 -0.155 0.0376964 255 128 0
0.0839269 -0.155 0.0909947 255 128 0
-0.0134377 -0.155 0.0311186 255 128 0
-0.0892152 -0.155 0.0375705 255 128 0
-0.0960023 -0.155 0.018059 255 128 0
-0.00951649 -0.155 0.0341616 255 128 0
-0.0792051 -0.155 0.0481979 255 128 0
0.0768669 -0.155 0.0493921 255 128 0
-0.01114 -0.155 0.0422451 255 128 0
-0.0606548 -0.155 0.0216278 255 128 0
0.0807453 -0.155 0.0431877 255 128 0
0.0724186 -0.155 0.0443881 255 128 0
0.0493966 -0.155 0.0401797 255 128 0
0.0888748 -0.155 0.0832178 255 128 0
-0.0917324 -0.155 0.0705118 255 128 0
0.0627466 -0.155 0.0130384 255 128 0
-0.0546426 -0.155 0.0205614 255 128 0
0.0330447 -0.155 0.0982974 255 128 0
0.0880525 -0.155 0.0368429 255 128 0
-0.00972004 -0.155 0.0355997 255 128 0
0.066815 -0.155 0.0382211 255 128 0
-0.0666586 -0.155 0.0766756 255 128 0
0.0660836 -0.155 0.04611 255 128 0
0.0304131 -0.155 0.0175433 255 128 0
-0.0452423 -0.155 0.00679383 255 128 0
-0.0466705 -0.155 0.0710175 255 128 0
-0.064638 -0.155 0.0909236 255 128 0
0.0212143 -0.155 0.0408598 255 128 0
0.0439647 -0.155 0.0267572 255 128 0
0.0226807 -0.155 0.0775048 255 128 0
0.0937031 -0.155 0.0980547 255 128 0
-0.0105138 -0.155 0.0745151 255 128 0
0.0775106 -0.155 0.0535754 255 128 0
0.0339572 -0.155 0.0245525 255 128 0
-0.00568884 -0.155 0.0564002 255 128 0
-0.0521793 -0.155 0.0781398 255 128 0
-0.0226705 -0.155 0.0399357 255 128 0
-0.0927613 -0.155 0.0244782 255 128 0
0.00687861 -0.155 0.0418196 255 128 0
0.0268425 -0.155 0.0143948 255 128 0
0.090632 -0.155 0.0942605 255 128 0
0.0913358 -0.155 0.0398509 255 128 0
0.0624275 -0.155 0.0425992 255 128 0
-0.0511372 -0.155 0.0885966 255 128 0
0.0382203 -0.155 0.0891095 255 128 0
-0.0526528 -0.155 0.0623925 255 128 0
0.0997514 -0.155 0.0669684 255 128 0
-0.0301559 -0.155 0.0867866 255 128 0
0.0825298 -0.155 0.0289195 255 128 0
-0.0578222 -0.155 0.039748 255 128 0
-0.0801 -0.155 0.0570612 255 128 0
0.0199317 -0.155 0.0530754 255 128 0
-0.0787606 -0.155 0.0570205 255 128 0
0.0230881 -0.155 0.0383451 255 128 0
-0.0638104 -0.155 0.00318875 255 128 0
-0.0603003 -0.155 0.043128 255 128 0
0.0826952 -0.155 0.0672726 255 128 0
-0.0998071 -0.155 0.0520949 255 128 0
0.0655815 -0.155 0.0433866 255 128 0
0.0670682 -0.155 0.0897976 255 128 0
-0.0784842 -0.155 0.0426612 255 128 0
0.0664776 -0.155 0.041318 255 128 0
-0.00600532 -0.155 0.0966963 255 128 0
-0.0856607 -0.155 0.0390549 255 128 0
0.0344364 -0.155 0.0814404 255 128 0
0.0903904 -0.155 0.062701 255 128 0
-0.0653619 -0.155 0.0720393 255 128 0
-0.0819571 -0.155 0.0761593 255 128 0
-0.000140326 -0.155 0.0157345 255 128 0
0.062877 -0.155 0.0416566 255 128 0
0.0248156 -0.155 0.0216697 255 128 0
-0.0723613 -0.155 0.050315 255 128 0
-0.0312747 -0.155 0.0160134 255 128 0
0.058194 -0.155 0.0452903 255 128 0
0.0943339 -0.155 0.0136502 255 128 0
0.0147465 -0.155 0.0783846 255 128 0
0.0730034 -0.155 0.00984128 255 128 0
-0.0870377 -0.155 0.049815 255 128 0
0.0837716 -0.155 0.0806917 255 128 0
-0.0872214 -0.155 0.0954034 255 128 0
-0.047271 -0.155 0.0174403 255 128 0
-0.0358674 -0.155 0.0628012 255 128 0
-0.0880133 0.152413 0 255 128 0
-0.0659773 0.14782 0 255 128 0
-0.0519978 0.14877 0 255 128 0
0.0248709 0.148545 0 255 128 0
-0.0843297 0.146921 0 255 128 0
-0.0221725 0.151396 0 255 128 0
0.0756646 0.147401 0 255 128 0
-0.0306304 0.151086 0 255 128 0
-0.0809326 0.14653 0 255 128 0
0.0269556 0.148448 0 255 128 0
-0.0591864 0.150417 0 255 128 0
0.0409978 0.148161 0 255 128 0
-0.0977222 0.148904 0 255 128 0
-0.0133789 0.154774 0 255 128 0
-0.083682 0.146392 0 255 128 0
-0.0327025 0.14626 0 255 128 0
-0.0548914 0.150039 0 255 128 0
-0.099495 0.147816 0 255 128 0
0.00993914 0.154111 0 255 128 0
0.0483007 0.152718 0 255 128 0
-0.0127718 0.145561 0.1 255 128 0
-0.0253256 0.154171 0.1 255 128 0
0.0141171 0.146517 0.1 255 128 0
-0.0999695 0.147844 0.1 255 128 0
-0.0707327 0.154401 0.1 255 128 0
0.0970007 0.15199 0.1 255 128 0
-0.0489392 0.152124 0.1 255 128 0
-0.0858113 0.146385 0.1 255 128 0
0.0483688 0.153615 0.1 255 128 0
0.0610818 0.145955 0.1 255 128 0
0.0115812 0.149383 0.1 255 128 0
-0.0570364 0.149441 0.1 255 128 0
0.00957125 0.148478 0.1 255 128 0
0.0963006 0.14959 0.1 255 128 0
-0.0250349 0.150386 0.1 255 128 0
-0.00589211 0.146576 0.1 255 128 0
0.0397273 0.150719 0.1 255 128 0
-0.0575117 0.150877 0.1 255 128 0
-0.00329765 0.148827 0.1 255 128 0
0.0996814 0.145285 0.1 255 128 0
-0.1 0.152988 0.0120609 255 128 0
-0.1 0.148925 0.0471804 255 128 0
-0.1 0.154775 0.0920251 255 128 0
-0.1 0.153187 0.012775 255 128 0
-0.1 0.148197 0.0240904 255 128 0
-0.1 0.148762 0.0370291 255 128 0
-0.1 0.149527 0.0552449 255 128 0
-0.1 0.153794 0.0129526 255 128 0
-0.1 0.153947 0.0511052 255 128 0
-0.1 0.147444 0.0971854 255 128 0
0.1 0.151587 0.0136457 255 128 0
0.1 0.154662 0.0905902 255 128 0
0.1 0.152994 0.0607677 255 128 0
0.1 0.152504 0.0612092 255 128 0
0.1 0.149624 0.0819075 255 128 0
0.1 0.147788 0.0406295 255 128 0
0.1 0.14722 0.0213538 255 128 0
0.1 0.152594 0.0298542 255 128 0
0.1 0.154975 0.00941869 255 128 0
0.1 0.150657 0.0558528 255 128 0
-0.0717552 0.155 0.0241793 255 128 0
-0.0501808 0.155 0.00864215 255 128 0
0.0499113 0.155 0.0179397 255 128 0
-0.0971856 0.155 0.0129986 255 128 0
0.0104314 0.155 0.0268401 255 128 0
0.040492 0.155 0.0559898 255 128 0
-0.0552784 0.155 0.0012546 255 128 0
0.0391791 0.155 0.0487067 255 128 0
-0.0148239 0.155 0.0677497 255 128 0
0.0257855 0.155 0.0425542 255 128 0
-0.0633293 0.155 6.58658e-05 255 128 0
-0.0140848 0.155 0.0409553 255 128 0
-0.0239563 0.155 0.0304114 255 128 0
0.0235697 0.155 0.0094947 255 128 0
0.0468965 0.155 0.0257835 255 128 0
0.0922919 0.155 0.0697134 255 128 0
0.0632299 0.155 0.0312747 255 128 0
-0.0959414 0.155 0.0634419 255 128 0
-0.0273783 0.155 0.00466483 255 128 0
-0.0466221 0.155 0.013787 255 128 0
0.0848754 0.155 0.0325136 255 128 0
-0.0332102 0.155 0.00921766 255 128 0
0.00843164 0.155 0.0755371 255 128 0
0.0611654 0.155 0.0508083 255 128 0
-0.0718048 0.155 0.095156 255 128 0
0.0277821 0.155 0.015014 255 128 0
-0.0716107 0.155 0.0654558 255 128 0
-0.0207743 0.155 0.0604378 255 128 0
0.0519607 0.155 0.0566599 255 128 0
-0.096664 0.155 0.0128481 255 128 0
0.0324236 0.155 0.0281541 255 128 0
-0.000525244 0.155 0.0729126 255 128 0
-0.0176907 0.155 0.0469244 255 128 0
-0.098047 0.155 0.0312786 255 128 0
0.072917 0.155 0.0867777 255 128 0
-0.0734264 0.155 0.0342749 255 128 0
0.0588288 0.155 0.0334513 255 128 0
-0.0284614 0.155 0.0704351 255 128 0
0.050873 0.155 0.0741888 255 128 0
-0.0826947 0.155 0.0756902 255 128 0
-0.0562701 0.155 0.0959495 255 128 0
0.029526 0.155 0.0234539 255 128 0
0.00706311 0.155 0.0880644 255 128 0
-0.0512563 0.155 0.0369489 255 128 0
-0.0868486 0.155 0.0309479 255 128 0
0.0282366 0.155 0.087662 255 128 0
-0.0555645 0.155 0.0418499 255 128 0
0.0606062 0.155 0.0981796 255 128 0
0.0414966 0.155 0.0583401 255 128 0
0.0318506 0.155 0.054764 255 128 0
0.0769053 0.155 0.0815692 255 128 0
-0.0699066 0.155 0.00516545 255 128 0
0.0980828 0.155 0.0707352 255 128 0
-0.0725289 0.155 0.0490031 255 128 0
-0.0765281 0.155 0.0872566 255 128 0
-0.0356869 0.155 0.0110106 255 128 0
0.0253555 0.155 0.0177892 255 128 0
-0.0342 0.155 0.0603956 255 128 0
0.0629382 0.155 0.0661929 255 128 0
0.0558617 0.155 0.0655766 255 128 0
-0.0623018 0.155 0.0963423 255 128 0
-0.0861399 0.155 0.0128389 255 128 0
-0.0682647 0.155 0.0312169 255 128 0
-0.0546048 0.155 0.0476713 255 128 0
-0.0807594 0.155 0.0673362 255 128 0
-0.0807894 0.155 0.0783467 255 128 0
-0.0478498 0.155 0.0446212 255 128 0
0.0428873 0.155 0.0590509 255 128 0
0.0882745 0.155 0.0524566 255 128 0
-0.0237546 0.155 0.0208169 255 128 0
0.0146044 0.155 0.0332039 255 128 0
-0.0913326 0.155 0.0588161 255 128 0
0.0401998 0.155 0.0389275 255 128 0
0.065278 0.155 0.0790164 255 128 0
0.0521759 0.155 1.23876e-05 255 128 0
0.0136316 0.155 0.0469095 255 128 0
-0.0989766 0.155 0.0799224 255 128 0
0.0654632 0.155 0.0210104 255 128 0
0.0802567 0.155 0.0743597 255 128 0
0.0831492 0.155 0.0190767 255 128 0
-0.0439473 0.155 0.0648082 255 128 0
0.0597568 0.155 0.0663302 255 128 0
0.0269177 0.155 0.0495197 255 128 0
0.0412555 0.155 0.0972942 255 128 0
0.0234171 0.155 0.0369829 255 128 0
-0.0346113 0.155 0.0779606 255 128 0
0.0341852 0.155 0.0167137 255 128 0
0.0241949 0.155 0.00892712 255 128 0
0.084454 0.155 0.0627346 255 128 0
-0.0681705 0.155 0.0763561 255 128 0
-0.0299256 0.155 0.0911476 255 128 0
0.0170566 0.155 0.0661851 255 128 0
-0.00152034 0.155 0.0565295 255 128 0
0.0106769 0.155 0.0532597 255 128 0
0.0354209 0.155 0.0247484 255 128 0
0.0358338 0.155 0.0118412 255 128 0
0.0424955 0.155 0.0977233 255 128 0
-0.0535644 0.155 0.0823501 255 128 0
0.0814637 0.155 0.0532137 255 128 0
-0.0775563 0.155 0.075608 255 128 0
0.0302143 0.155 0.0161003 255 128 0
0.0335188 0.155 0.0432567 255 128 0
-0.00877275 0.155 0.0468686 255 128 0
0.00300637 0.155 0.0976087 255 128 0
0.093468 0.155 0.0802151 255 128 0
0.00843554 0.155 0.0252518 255 128 0
0.0813701 0.155 0.0249971 255 128 0
0.0157739 0.155 0.0421515 255 128 0
-0.033493 0.155 0.0647108 255 128 0
-0.00794628 0.155 0.0126327 255 128 0
0.00240138 0.155 0.00255431 255 128 0
0.0480905 0.155 0.00824659 255 128 0
0.0800281 0.155 0.0168601 255 128 0
0.0827336 0.155 0.0804589 255 128 0
-0.0697327 0.155 0.0488467 255 128 0
-0.00205336 0.155 0.0316191 255 128 0
-0.0122168 0.155 0.0224221 255 128 0
-0.0711053 0.155 0.0309877 255 128 0
0.0948047 0.155 0.0162036 255 128 0
-0.0226996 0.155 0.0121611 255 128 0
-0.0241175 0.155 0.0860669 255 128 0
0.0256003 0.155 0.0647286 255 128 0
0.0908315 0.155 0.090947 255 128 0
0.0816346 0.155 0.0882628 255 128 0
0.0304341 0.155 0.0826741 255 128 0
-0.0272203 0.155 0.0778333 255 128 0
0.00191066 0.155 0.0061278 255 128 0
0.0157703 0.155 0.0798931 255 128 0
-0.0436265 0.155 0.0275058 255 128 0
-0.0847167 0.155 0.0897363 255 128 0
-0.031994 0.155 0.0830898 255 128 0
0.0759596 0.155 0.0689553 255 128 0
0.013035 0.155 0.0359144 255 128 0
-0.0336948 0.155 0.0359253 255 128 0
-0.00159467 0.155 0.0312596 255 128 0
0.07504 0.155 0.037316 255 128 0
-0.0828423 0.155 0.0679526 255 128 0
0.0106348 0.155 0.0565982 255 128 0
-0.065173 0.155 0.0998999 255 128 0
0.0248798 0.155 0.0116917 255 128 0
0.085068 0.155 0.0861345 255 128 0
0.0668246 0.155 0.00508383 255 128 0
-0.0781806 0.155 0.0218979 255 128 0
0.088417 0.155 0.0341765 255 128 0
0.0950564 0.155 0.0386358 255 128 0
0.0430969 0.155 0.0137417 255 128 0
-0.093311 0.155 0.0536966 255 128 0
-0.0157499 0.155 0.0478171 255 128 0
-0.0961874 0.155 0.0185888 255 128 0
0.0880297 0.155 0.0670812 255 128 0
0.0506442 0.155 0.0299067 255 128 0
0.0831422 0.155 0.0612579 255 128 0
0.0868235 0.155 0.0256084 255 128 0
0.0327212 0.155 0.0518078 255 128 0
0.0238423 0.155 0.0375559 255 128 0
-0.0108642 0.155 0.0505488 255 128 0
0.0392598 0.155 0.0397287 255 128 0
0.0646311 0.155 0.0751202 255 128 0
0.0401726 0.155 0.050953 255 128 0
0.00615184 0.155 0.0498449 255 128 0
-0.033885 0.155 0.0987931 255 128 0
-0.0152382 0.155 0.0368594 255 128 0
0.0194242 0.155 0.0177508 255 128 0
0.00963999 0.155 0.0859684 255 128 0
0.0650949 0.155 0.0497028 255 128 0
-0.0573444 0.155 0.0788575 255 128 0
-0.0952106 0.155 0.0460362 255 128 0
-0.067102 0.155 0.0520096 255 128 0
-0.00128478 0.155 0.0008823 255 128 0
0.0824346 0.155 0.0734665 255 128 0
-0.0121579 0.155 0.0404379 255 128 0
0.0627953 0.155 0.0183578 255 128 0
0.0682622 0.155 0.0319009 255 128 0
-0.0936467 0.155 0.00948155 255 128 0
-0.0567447 0.155 0.00960463 255 128 0
0.00979874 0.155 0.00286067 255 128 0
-0.0964434 0.155 0.0927224 255 128 0
0.0656145 0.155 0.0587936 255 128 0
-0.0329154 0.155 0.0825376 255 128 0
-0.0771289 0.155 0.00430902 255 128 0
0.0737454 0.155 0.0237248 255 128 0
-0.0914753 0.155 0.0274966 255 128 0
-0.0606602 0.155 0.0898353 255 128 0
0.0447443 0.155 0.0934878 255 128 0
-0.0951646 0.155 0.0433512 255 128 0
-0.0693518 0.155 0.0680786 255 128 0
0.0437445 0.155 0.0191969 255 128 0
-0.0934537 0.155 0.00436427 255 128 0
0.0913056 0.155 0.0666925 255 128 0
-0.0155873 0.155 0.0840315 255 128 0
-0.059307 0.155 0.0258791 255 128 0
-0.0790988 0.155 0.0562457 255 128 0
0.0451614 0.155 0.0587017 255 128 0
0.0316545 0.155 0.00023499 255 128 0
0.0573029 0.155 0.0618025 255 128 0
-0.0112393 0.155 0.0153781 255 128 0
0.0380379 0.155 0.00924978 255 128 0
0.0296741 0.155 0.0842913 255 128 0
0.060434 0.155 0.026204 255 128 0
0.0803331 0.155 0.0801625 255 128 0
-0.053428 0.145 0.0359252 255 128 0
0.0219395 0.145 0.0544401 255 128 0
-0.0466993 0.145 0.0384911 255 128 0
0.049524 0.145 0.0367906 255 128 0
0.0602387 0.145 0.00987052 255 128 0
-0.00455472 0.145 0.0767118 255 128 0
-0.066677 0.145 0.0775731 255 128 0
0.0783769 0.145 0.0322584 255 128 0
0.00629301 0.145 0.000106345 255 128 0
-0.0577383 0.145 0.0207654 255 128 0
0.0246973 0.145 0.077255 255 128 0
0.0640518 0.145 0.082889 255 128 0
-0.0190142 0.145 0.0533422 255 128 0
0.0173051 0.145 0.0160308 255 128 0
-0.0757158 0.145 0.0358164 255 128 0
-0.0639168 0.145 0.0939108 255 128 0
-0.0155482 0.145 0.0805201 255 128 0
-0.0503556 0.145 0.0099403 255 128 0
-0.00221286 0.145 0.032305 255 128 0
0.0801562 0.145 0.0708745 255 128 0
-0.0960844 0.145 0.0703017 255 128 0
0.0423386 0.145 0.0787391 255 128 0
0.0258101 0.145 0.0984607 255 128 0
-0.0670819 0.145 0.0604107 255 128 0
0.0156495 0.145 0.0896298 255 128 0
0.00417866 0.145 0.0381377 255 128 0
0.0621166 0.145 0.0955598 255 128 0
0.0107083 0.145 0.0395648 255 128 0
0.0710485 0.145 0.053628 255 128 0
0.00361919 0.145 0.0297764 255 128 0
-0.0833476 0.145 0.0703263 255 128 0
-0.0420327 0.145 0.0933292 255 128 0
0.0135565 0.145 0.0282548 255 128 0
-0.0698914 0.145 0.0972002 255 128 0
-0.0784413 0.145 0.0694495 255 128 0
-0.0581156 0.145 0.0641658 255 128 0
-0.00220902 0.145 0.0252381 255 128 0
-0.0284158 0.145 0.034376 255 128 0
-0.0549746 0.145 0.00476958 255 128 0
