ply
format ascii 1.0
comment Created by Open3D
element vertex 1210
property double x
property double y
property double z
property uchar red
property uchar green
property uchar blue
end_header
-0.676904 0.9995 -0.0507932 237 202 172
0.808069 0.9995 -0.0501885 237 202 172
-0.275288 0.9995 -0.0199525 237 202 172
0.030592 0.9995 -0.0522621 237 202 172
-0.0974838 0.9995 -0.0547135 237 202 172
-0.621628 0.9995 -0.0165856 237 202 172
0.746752 0.9995 -0.0804567 237 202 172
0.899386 0.9995 -0.081457 237 202 172
-0.443205 0.9995 -0.0354416 237 202 172
0.482291 0.9995 -0.096913 237 202 172
0.130649 0.9995 -0.0311309 237 202 172
-0.58086 0.9995 -0.0658361 237 202 172
-0.398411 0.9995 -0.0715491 237 202 172
-0.112448 0.9995 -0.0812392 237 202 172
-0.0323177 0.9995 -0.0629462 237 202 172
0.128812 0.9995 -0.0417241 237 202 172
-0.370633 0.9995 -0.0382674 237 202 172
0.757997 0.9995 -0.0962323 237 202 172
0.620854 0.9995 -0.0398382 237 202 172
-0.0930906 0.9995 -0.0147458 237 202 172
-0.184024 0.9995 -0.00392419 237 202 172
0.806836 0.9995 -0.0984137 237 202 172
-0.187411 0.9995 -0.00782894 237 202 172
-0.429018 0.9995 -0.0509844 237 202 172
-0.407838 0.9995 -0.0762965 237 202 172
0.750677 0.9995 -0.0485959 237 202 172
0.581196 0.9995 -0.0382643 237 202 172
-0.840822 0.9995 -0.0771319 237 202 172
-0.0218504 0.9995 -0.0862137 237 202 172
-0.601474 0.9995 -0.0269837 237 202 172
0.568124 0.9995 -0.0396164 237 202 172
-0.0132265 0.9995 -0.0532182 237 202 172
0.31421 0.9995 -0.0167555 237 202 172
0.927989 0.9995 -0.0184545 237 202 172
-0.139529 0.9995 -0.0370934 237 202 172
0.911609 0.9995 -0.0196112 237 202 172
0.362012 0.9995 -0.0789563 237 202 172
-0.75904 0.9995 -0.0177037 237 202 172
0.915971 0.9995 -0.0976153 237 202 172
0.515986 0.9995 -0.0217912 237 202 172
0.384079 0.9995 -0.0502559 237 202 172
-0.342537 0.9995 -0.0816064 237 202 172
-0.59405 0.9995 -0.0603989 237 202 172
-0.0556256 0.9995 -0.0756263 237 202 172
0.608402 0.9995 -0.0861705 237 202 172
-0.116349 0.9995 -0.0820978 237 202 172
0.721795 0.9995 -0.0876614 237 202 172
-0.294922 0.9995 -0.0342927 237 202 172
0.43606 0.9995 -0.0315247 237 202 172
-0.290831 0.9995 -0.0139033 237 202 172
-0.710507 0.9995 -0.0389362 237 202 172
0.597099 0.9995 -0.00586104 237 202 172
0.460188 0.9995 -0.0948527 237 202 172
-0.78623 0.9995 -0.0815136 237 202 172
0.0890484 0.9995 -0.0472827 237 202 172
0.358432 0.9995 -0.0203926 237 202 172
-0.411963 0.9995 -0.0824127 237 202 172
-0.739681 0.9995 -0.0452024 237 202 172
0.928365 0.9995 -0.0582421 237 202 172
-0.629713 0.9995 -0.0108375 237 202 172
-0.853404 0.9995 -0.0443935 237 202 172
0.776818 0.9995 -0.0899868 237 202 172
0.387957 0.9995 -0.00172917 237 202 172
0.884648 0.9995 -0.0353213 237 202 172
-0.700467 0.9995 -0.0836319 237 202 172
0.70717 0.9995 -0.0431481 237 202 172
0.253029 0.9995 -0.034016 237 202 172
-0.722955 0.9995 -0.0583323 237 202 172
0.519374 0.9995 -0.0759602 237 202 172
0.375116 0.9995 -0.0940918 237 202 172
-0.0982745 0.9995 -0.0976816 237 202 172
-0.630611 0.9995 -0.0250185 237 202 172
0.608052 0.9995 -0.0792629 237 202 172
0.816183 0.9995 -0.0426984 237 202 172
-0.0870034 0.9995 -0.0485452 237 202 172
0.338833 0.9995 -0.0175879 237 202 172
-0.139209 0.9995 -0.0206422 237 202 172
0.303886 0.9995 -0.0922955 237 202 172
0.0529023 0.9995 -0.0015738 237 202 172
0.828562 0.9995 -0.0246307 237 202 172
-0.867347 0.9995 -0.00121454 237 202 172
-0.300137 0.9995 -0.0498329 237 202 172
0.523698 0.9995 -0.0944251 237 202 172
-0.0753646 0.9995 -0.0947044 237 202 172
0.749459 0.9995 -0.0771528 237 202 172
-0.418183 0.9995 -0.0201943 237 202 172
-0.702973 0.9995 -0.0943625 237 202 172
-0.303065 0.9995 -0.0841947 237 202 172
0.709076 0.9995 -0.0655224 237 202 172
0.698423 0.9995 -0.012524 237 202 172
-0.849141 0.9995 -0.0871764 237 202 172
0.264028 0.9995 -0.028787 237 202 172
0.857652 0.9995 -0.017973 237 202 172
-0.847251 0.9995 -0.00601103 237 202 172
-0.145042 0.9995 -0.0557469 237 202 172
-0.803428 0.9995 -0.000777208 237 202 172
-0.590747 0.9995 -0.0313721 237 202 172
-0.396676 0.9995 -0.0297266 237 202 172
0.136856 0.9995 -0.0935032 237 202 172
0.841064 0.9995 -0.00259866 237 202 172
0.139585 0.9995 -0.0265026 237 202 172
-0.844798 0.9995 -0.0963519 237 202 172
0.928209 0.9995 -0.00817701 237 202 172
-0.00483426 0.9995 -0.00900008 237 202 172
0.381304 0.9995 -0.0144461 237 202 172
0.146408 0.9995 -0.0508881 237 202 172
-0.967188 0.9995 -0.0369442 237 202 172
-0.0403792 0.9995 -0.0683273 237 202 172
-0.753331 0.9995 -0.0701867 237 202 172
0.836838 0.9995 -0.0950933 237 202 172
-0.266534 0.9995 -0.091824 237 202 172
0.573776 0.9995 -0.00911047 237 202 172
-0.762841 0.9995 -0.0141869 237 202 172
-0.92639 0.9995 -0.0343617 237 202 172
0.944069 0.9995 -0.0549601 237 202 172
0.599965 0.9995 -0.0340484 237 202 172
-0.188839 0.9995 -0.0914598 237 202 172
-0.760517 0.9995 -0.00610477 237 202 172
-0.893683 0.9995 -0.0515122 237 202 172
0.471952 0.9995 -0.0962646 237 202 172
-0.55563 0.9995 -0.0724333 237 202 172
0.3616 0.9995 -0.0702525 237 202 172
0.797085 0.9995 -0.0547049 237 202 172
-0.522514 0.9995 -0.0622689 237 202 172
-0.716108 0.9995 -0.0144371 237 202 172
0.79699 0.9995 -0.0691943 237 202 172
-0.716384 0.9995 -0.0675238 237 202 172
-0.939701 0.9995 -0.0216932 237 202 172
0.72764 0.9995 -0.0773108 237 202 172
0.410382 0.9995 -0.06772 237 202 172
-0.0345752 0.9995 -0.0535785 237 202 172
-0.0179449 0.9995 -0.0421769 237 202 172
-0.925303 0.9995 -0.00685106 237 202 172
0.366688 0.9995 -0.0775729 237 202 172
0.907785 0.9995 -0.00569056 237 202 172
-0.458589 0.9995 -0.0862939 237 202 172
-0.10871 0.9995 -0.0590575 237 202 172
-0.339198 0.9995 -0.0850174 237 202 172
-0.47571 0.9995 -0.0092225 237 202 172
0.132912 0.9995 -0.0700388 237 202 172
0.871705 0.9995 -0.0305555 237 202 172
-0.346036 0.9995 -0.0323097 237 202 172
-0.279711 0.9995 -0.0973016 237 202 172
-0.135017 0.9995 -0.0581013 237 202 172
-0.967613 0.9995 -0.0748786 237 202 172
0.554196 0.9995 -0.0559012 237 202 172
0.710935 0.9995 -0.0569216 237 202 172
-0.00964338 0.9995 -0.0873784 237 202 172
-0.114896 0.9995 -0.0585042 237 202 172
0.237594 0.9995 -0.03773 237 202 172
0.657494 0.9995 -0.0312087 237 202 172
0.444259 0.9995 -0.0877718 237 202 172
-0.791258 0.9995 -0.0391338 237 202 172
-0.361937 0.9995 -0.0777513 237 202 172
0.569199 0.9995 -0.0356625 237 202 172
-0.181732 0.9995 -0.0320427 237 202 172
-0.790534 0.9995 -0.00488205 237 202 172
0.84801 0.9995 -0.0377603 237 202 172
-0.570075 0.9995 -0.0843304 237 202 172
-0.418868 0.9995 -0.0887245 237 202 172
-0.769645 0.9995 -0.0256065 237 202 172
0.294822 0.9995 -0.0354379 237 202 172
0.578894 0.9995 -0.0264174 237 202 172
0.381342 0.9995 -0.0847016 237 202 172
-0.910618 0.9995 -0.0447582 237 202 172
-0.209809 0.9995 -0.0878917 237 202 172
0.968284 0.9995 -0.0421677 237 202 172
-0.177223 0.9995 -0.0237058 237 202 172
-0.0849776 0.9995 -0.00130515 237 202 172
0.168637 0.9995 -0.0985753 237 202 172
-0.596731 0.9995 -0.0302336 237 202 172
0.776564 0.9995 -0.0685226 237 202 172
-0.817078 0.9995 -0.0988961 237 202 172
-0.0960856 0.9995 -0.0659767 237 202 172
0.284259 0.9995 -0.0406667 237 202 172
0.28285 0.9995 -0.034942 237 202 172
-0.553071 0.9995 -0.0713923 237 202 172
-0.357033 0.9995 -0.0267784 237 202 172
0.700162 0.9995 -0.0937642 237 202 172
-0.421457 0.9995 -0.0972323 237 202 172
-0.852424 0.9995 -0.0333741 237 202 172
0.31657 0.9995 -0.00576495 237 202 172
0.0913257 0.9995 -0.0381706 237 202 172
0.30471 0.9995 -0.0601796 237 202 172
0.946332 0.9995 -0.0121981 237 202 172
-0.187885 0.9995 -0.0123745 237 202 172
0.953511 0.9995 -0.061261 237 202 172
0.303672 0.9995 -0.0630934 237 202 172
0.463414 0.9995 -0.0626586 237 202 172
0.650317 0.9995 -0.0331614 237 202 172
-0.426982 0.9995 -0.0483472 237 202 172
-0.129463 0.9995 -0.0275843 237 202 172
0.915914 0.9995 -0.0641875 237 202 172
-0.724297 0.9995 -0.0873262 237 202 172
0.0798794 0.9995 -0.0408349 237 202 172
-0.700032 0.9995 -0.00837202 237 202 172
-0.979094 0.9995 -0.049412 237 202 172
-0.626776 0.9995 -0.0835831 237 202 172
-0.0737469 0.9995 -0.0125297 237 202 172
-0.977168 0.9995 -0.0923663 237 202 172
-0.915034 0.9995 -0.048656 237 202 172
-0.0865875 0.9995 -0.0976159 237 202 172
-0.689249 0.9995 -0.0247753 237 202 172
0.765472 0.9995 -0.0556431 237 202 172
-0.549334 0.9995 -0.0933961 237 202 172
-0.054383 0.9995 -0.094896 237 202 172
-0.359358 0.9995 -0.0774755 237 202 172
-0.48693 0.9995 -0.0576649 237 202 172
-0.856861 0.9995 -0.00818683 237 202 172
0.968462 0.9995 -0.012272 237 202 172
-0.750674 0.9995 -0.0988378 237 202 172
0.0390037 0.9995 -0.0483045 237 202 172
0.795513 0.9995 -0.00142245 237 202 172
-0.0465024 0.9995 -0.0766473 237 202 172
0.941799 0.9995 -0.00933322 237 202 172
-0.849634 0.9995 -0.0735967 237 202 172
0.427201 0.9995 -0.0486305 237 202 172
0.793357 0.9995 -0.00568292 237 202 172
0.574498 0.9995 -0.0985633 237 202 172
0.238883 0.9995 -0.0618968 237 202 172
-0.894261 0.9995 -0.0433693 237 202 172
-0.416485 0.9995 -0.074298 237 202 172
0.742557 0.9995 -0.0282797 237 202 172
-0.304863 0.9995 -0.0316077 237 202 172
-0.498551 0.9995 -0.011124 237 202 172
0.388501 0.9995 -0.0604845 237 202 172
-0.235533 0.9995 -0.00226576 237 202 172
-0.860424 0.9995 -0.072451 237 202 172
0.161558 0.9995 -0.0365696 237 202 172
-0.272354 0.9995 -0.0617344 237 202 172
0.287256 0.9995 -0.0011818 237 202 172
0.99063 0.9995 -0.0427669 237 202 172
0.924838 0.9995 -0.00764316 237 202 172
0.390748 0.9995 -0.0940145 237 202 172
-0.369921 0.9995 -0.0644245 237 202 172
0.130496 0.9995 -0.00837758 237 202 172
-0.46767 0.9995 -0.00506473 237 202 172
0.0345884 0.9995 -0.0175666 237 202 172
-0.126004 0.9995 -0.00402345 237 202 172
-0.33121 0.9995 -0.082909 237 202 172
-0.730824 0.9995 -0.00660619 237 202 172
0.140017 0.9995 -0.0205541 237 202 172
-0.849033 0.9995 -0.0942298 237 202 172
0.386069 0.9995 -0.0410372 237 202 172
0.202894 0.9995 -0.0218042 237 202 172
0.307455 0.9995 -0.0588308 237 202 172
-0.88024 0.9995 -0.085745 237 202 172
-0.102318 0.9995 -0.0863672 237 202 172
0.249319 0.9995 -0.0715228 237 202 172
0.543274 0.9995 -0.0502912 237 202 172
-0.818959 0.9995 -0.0214839 237 202 172
0.456962 0.9995 -0.0363082 237 202 172
0.0771924 0.9995 -0.0286002 237 202 172
-0.655996 0.9995 -0.069856 237 202 172
-0.10027 0.9995 -0.000849214 237 202 172
0.154179 0.9995 -0.0987243 237 202 172
-0.183475 0.9995 -0.0297838 237 202 172
-0.286154 0.9995 -0.0613722 237 202 172
-0.8518 0.9995 -0.00219807 237 202 172
0.580149 0.9995 -0.0186276 237 202 172
0.271373 0.9995 -0.0585093 237 202 172
-0.607847 0.9995 -0.083599 237 202 172
0.251576 0.9995 -0.0841581 237 202 172
0.915038 0.9995 -0.0616648 237 202 172
0.886833 0.9995 -0.0279677 237 202 172
-0.81714 0.9995 -0.0617065 237 202 172
0.0236757 0.9995 -0.0668759 237 202 172
0.716873 0.9995 -0.0347602 237 202 172
0.304571 0.9995 -0.0208991 237 202 172
0.700542 0.9995 -0.0880101 237 202 172
0.0587059 0.9995 -0.0743757 237 202 172
0.990477 0.9995 -0.0764085 237 202 172
0.424148 0.9995 -0.0600447 237 202 172
0.987104 0.9995 -0.0478666 237 202 172
0.227068 0.9995 -0.0923659 237 202 172
0.709524 0.9995 -0.0780045 237 202 172
0.44564 0.9995 -0.0423566 237 202 172
0.989474 0.9995 -0.0198163 237 202 172
-0.768244 0.9995 -0.0839425 237 202 172
-0.196819 0.9995 -0.0234483 237 202 172
-0.821648 0.9995 -0.0993734 237 202 172
0.382495 0.9995 -0.0360312 237 202 172
0.971854 0.9995 -0.0229583 237 202 172
0.712864 0.9995 -0.0907387 237 202 172
0.25041 0.9995 -0.00539514 237 202 172
0.386249 0.9995 -0.0837829 237 202 172
-0.370922 0.9995 -0.0356593 237 202 172
0.243758 0.9995 -0.0463319 237 202 172
0.124062 0.9995 -0.0512912 237 202 172
-0.161671 0.9995 -0.00618398 237 202 172
0.92229 0.9995 -0.0559448 237 202 172
0.505389 0.9995 -0.00322845 237 202 172
-0.516649 0.9995 -0.084004 237 202 172
0.0211195 0.9995 -0.0162756 237 202 172
-0.0692321 0.9995 -0.0551227 237 202 172
-0.374614 0.9995 -0.0301943 237 202 172
0.303028 0.9995 -0.0738295 237 202 172
0.78729 0.9995 -0.0135034 237 202 172
-0.919462 0.9995 -0.0608436 237 202 172
0.67512 0.9995 -0.0329927 237 202 172
-0.117953 0.9995 -0.0810387 237 202 172
0.0868331 0.9995 -0.00449268 237 202 172
0.820739 0.9995 -0.0870493 237 202 172
-0.683205 0.9995 -0.0388872 237 202 172
-0.368861 0.9995 -0.0135564 237 202 172
-0.193596 0.9995 -0.011308 237 202 172
-0.480099 0.9995 -0.0856136 237 202 172
-0.897612 0.9995 -0.0130224 237 202 172
0.569193 0.9995 -0.0316371 237 202 172
0.68539 0.9995 -0.0878806 237 202 172
-0.638514 0.9995 -0.0304279 237 202 172
-0.0922858 0.9995 -0.0302228 237 202 172
-0.935368 0.9995 -0.0837626 237 202 172
0.719586 0.9995 -0.0831748 237 202 172
0.240486 0.9995 -0.097357 237 202 172
-0.648215 0.9995 -0.0617296 237 202 172
-0.419295 0.9995 -0.0483538 237 202 172
0.882451 0.9995 -0.0871378 237 202 172
-0.30632 0.9995 -0.0225184 237 202 172
0.49086 0.9995 -0.076345 237 202 172
-0.732571 0.9995 -0.0367454 237 202 172
0.644034 0.9995 -0.00925624 237 202 172
0.343258 0.9995 -0.0384687 237 202 172
0.689632 0.9995 -0.0423395 237 202 172
-0.212467 0.9995 -0.0463629 237 202 172
-0.620745 0.9995 -0.0823193 237 202 172
0.618851 0.9995 -0.0232796 237 202 172
0.144122 0.9995 -0.0279783 237 202 172
-0.148559 0.9995 -0.0799281 237 202 172
0.00164112 0.9995 -0.0822599 237 202 172
-0.667902 0.9995 -0.0322739 237 202 172
-0.479802 0.9995 -0.0637357 237 202 172
-0.893824 0.9995 -0.0566888 237 202 172
0.48912 0.9995 -0.0207277 237 202 172
0.965917 0.9995 -0.060089 237 202 172
-0.644721 0.9995 -0.059768 237 202 172
-0.436757 0.9995 -0.0434631 237 202 172
0.424723 0.9995 -0.00483678 237 202 172
0.237399 0.9995 -0.0378037 237 202 172
0.263606 0.9995 -0.00418788 237 202 172
0.289155 0.9995 -0.00922911 237 202 172
0.000773674 0.9995 -0.0657785 237 202 172
-0.747395 0.9995 -0.0523539 237 202 172
-0.49264 0.9995 -0.0369268 237 202 172
-0.707464 0.9995 -0.00525213 237 202 172
-0.899386 0.9995 -0.00523083 237 202 172
0.8047 0.9995 -0.0633704 237 202 172
-0.884728 0.9995 -0.0576925 237 202 172
0.647078 0.9995 -0.0742616 237 202 172
-0.90183 0.9995 -0.0567105 237 202 172
0.731518 0.9995 -0.00382806 237 202 172
0.254746 0.9995 -0.0946896 237 202 172
0.228799 0.9995 -0.0792355 237 202 172
0.769476 0.9995 -0.0172253 237 202 172
0.478765 0.9995 -0.0615302 237 202 172
0.135997 0.9995 -0.0985685 237 202 172
-0.696824 0.9995 -0.0484157 237 202 172
0.702985 0.9995 -0.0233442 237 202 172
0.707773 0.9995 -0.034241 237 202 172
-0.646395 0.9995 -0.051819 237 202 172
-0.642336 0.9995 -0.024678 237 202 172
0.682463 0.9995 -0.0624991 237 202 172
-0.30028 0.9995 -0.046216 237 202 172
-0.139063 0.9995 -0.0104584 237 202 172
-0.418766 0.9995 -0.0685557 237 202 172
-0.709403 0.9995 -0.0496857 237 202 172
-0.0170059 0.9995 -0.0922321 237 202 172
-0.344586 0.9995 -0.0690192 237 202 172
0.991269 0.9995 -0.049704 237 202 172
-0.456863 0.9995 -0.0616999 237 202 172
0.209929 0.9995 -0.00311751 237 202 172
0.023809 0.9995 -0.0771993 237 202 172
0.673008 0.9995 -0.0913819 237 202 172
-0.62963 0.9995 -0.00886463 237 202 172
-0.521181 0.9995 -0.0781532 237 202 172
-0.897653 0.9995 -0.0619271 237 202 172
0.809553 0.9995 -0.0199372 237 202 172
-0.161334 0.9995 -0.0911175 237 202 172
0.072721 0.9995 -0.0524854 237 202 172
-0.842514 0.9995 -0.010891 237 202 172
0.434954 0.9995 -0.0688878 237 202 172
-0.557873 0.9995 -0.00185072 237 202 172
-0.1516 0.9995 -0.0196258 237 202 172
-0.00540291 0.9995 -0.0475643 237 202 172
-0.325798 0.9995 -0.0629481 237 202 172
0.503999 0.9995 -0.0625093 237 202 172
0.794728 0.9995 -0.0751849 237 202 172
0.869922 0.9995 -0.0328173 237 202 172
0.558858 0.9995 -0.0110962 237 202 172
0.396027 0.9995 -0.0257965 237 202 172
0.472605 0.9995 -0.0209713 237 202 172
0.250981 0.9995 -0.0875826 237 202 172
0.969218 0.9995 -0.0249872 237 202 172
0.918091 0.9995 -0.066812 237 202 172
-0.643997 0.9995 -0.0260173 237 202 172
-0.193005 0.9995 -0.0092145 237 202 172
0.864417 0.9995 -0.0849646 237 202 172
-0.826472 0.9995 -0.071234 237 202 172
0.151579 0.9995 -0.0263511 237 202 172
0.719566 0.9995 -0.0733932 237 202 172
-0.444852 0.9995 -0.0736736 237 202 172
0.677801 0.9995 -0.0331603 237 202 172
-0.773735 0.9995 -0.039617 237 202 172
0.816177 0.9995 -0.0284477 237 202 172
0.615675 0.9995 -0.0786593 237 202 172
-0.299412 0.9995 -0.0353628 237 202 172
-0.835471 0.9995 -0.098342 237 202 172
0.821348 0.9995 -0.0448326 237 202 172
-0.927965 0.9995 -0.058796 237 202 172
0.693514 0.9995 -0.0634611 237 202 172
0.349857 0.9995 -0.0865312 237 202 172
0.169882 0.9995 -0.0345238 237 202 172
0.381926 0.9995 -0.0616232 237 202 172
0.451796 0.9995 -0.0975225 237 202 172
-0.70057 0.9995 -0.0921444 237 202 172
0.391156 0.9995 -0.0150736 237 202 172
0.288362 0.9995 -0.0324876 237 202 172
0.694805 0.9995 -0.0780006 237 202 172
0.713084 0.9995 -0.0320794 237 202 172
0.946738 0.9995 -0.0276003 237 202 172
0.162592 0.9995 -0.0387589 237 202 172
-0.490806 0.9995 -0.086019 237 202 172
-0.298092 0.9995 -0.0436706 237 202 172
-0.950607 0.9995 -0.0276652 237 202 172
-0.442803 0.9995 -0.0788893 237 202 172
0.725016 0.9995 -0.0362066 237 202 172
0.60334 0.9995 -0.0694135 237 202 172
0.182712 0.9995 -0.0508978 237 202 172
0.0491181 0.9995 -0.0899098 237 202 172
0.320931 0.9995 -0.0127227 237 202 172
0.151152 0.9995 -0.0629325 237 202 172
0.230644 0.9995 -0.0162771 237 202 172
-0.261813 0.9995 -0.00307462 237 202 172
-0.392886 0.9995 -0.025514 237 202 172
-0.821747 0.9995 -0.0177341 237 202 172
0.287308 0.9995 -0.0402585 237 202 172
0.598866 0.9995 -0.0986385 237 202 172
-0.483937 0.9995 -0.0230375 237 202 172
0.952415 0.9995 -0.0585134 237 202 172
0.694355 0.9995 -0.0639211 237 202 172
0.843591 0.9995 -0.0239872 237 202 172
0.326674 0.9995 -0.0744082 237 202 172
0.0918792 0.9995 -0.0710916 237 202 172
-0.511371 0.9995 -0.0336969 237 202 172
-0.251098 0.9995 -0.00448044 237 202 172
0.579 0.9995 -0.0250638 237 202 172
-0.339518 0.9995 -0.0976599 237 202 172
-0.511018 0.9995 -0.0328679 237 202 172
0.132399 0.9995 -0.0188716 237 202 172
-0.55879 0.9995 -0.0267124 237 202 172
-0.205602 0.9995 -0.041065 237 202 172
0.0485669 0.9995 -0.0576396 237 202 172
0.384117 0.9995 -0.0177782 237 202 172
0.803864 0.9995 -0.0252495 237 202 172
0.253541 0.9995 -0.0292675 237 202 172
-0.281116 0.9995 -0.00981051 237 202 172
0.104296 0.9995 -0.0433752 237 202 172
0.564661 0.9995 -0.0554041 237 202 172
-0.924902 0.9995 -0.0747517 237 202 172
-0.8116 0.9995 -0.00650614 237 202 172
0.351767 0.9995 -0.00287723 237 202 172
0.0792468 0.9995 -0.0419119 237 202 172
0.0225844 0.9995 -0.0116746 237 202 172
-0.514373 0.9995 -0.041514 237 202 172
-0.782035 0.9995 -0.0627939 237 202 172
-0.348487 0.9995 -0.000873277 237 202 172
-0.0450003 0.9995 -0.0376396 237 202 172
-0.698357 0.9995 -0.0759524 237 202 172
0.845921 0.9995 -0.000598157 237 202 172
-0.970457 0.9995 -0.0408186 237 202 172
-0.204441 0.9995 -0.0904504 237 202 172
-0.986151 0.9995 -0.0885974 237 202 172
0.562905 0.9995 -0.0670341 237 202 172
0.709187 0.9995 -0.0102548 237 202 172
-0.136202 0.9995 -0.0011242 237 202 172
0.757608 0.9995 -0.070228 237 202 172
-0.543121 0.9995 -0.0481793 237 202 172
0.529497 0.9995 -0.0824113 237 202 172
0.788052 0.9995 -0.035518 237 202 172
-0.797175 0.9995 -0.0933534 237 202 172
-0.213068 0.9995 -0.0161219 237 202 172
0.895289 0.9995 -0.0525083 237 202 172
-0.807142 0.9995 -0.0429748 237 202 172
-0.514713 0.9995 -0.0913721 237 202 172
-0.30133 0.9995 -0.0550637 237 202 172
0.713503 0.9995 -0.0807925 237 202 172
0.753254 0.9995 -0.0359429 237 202 172
-0.128656 0.9995 -0.082205 237 202 172
0.63516 0.9995 -0.086583 237 202 172
-0.175755 0.9995 -0.031873 237 202 172
0.850632 0.9995 -0.0606164 237 202 172
0.497653 0.9995 -0.0943265 237 202 172
0.120189 0.9995 -0.0100724 237 202 172
0.704196 0.9995 -0.0402277 237 202 172
0.0507601 0.9995 -0.0224575 237 202 172
0.76855 0.9995 -0.00860829 237 202 172
-0.831227 0.9995 -0.0781067 237 202 172
-0.80933 0.9995 -0.0582324 237 202 172
0.110057 0.9995 -0.0459838 237 202 172
0.54139 0.9995 -0.0992197 237 202 172
0.994669 0.9995 -0.0508491 237 202 172
-0.820089 0.9995 -0.0916501 237 202 172
-0.211271 0.9995 -0.0857406 237 202 172
-0.0739995 0.9995 -0.0509595 237 202 172
-0.755923 0.9995 -0.0941532 237 202 172
0.490193 0.9995 -0.0621395 237 202 172
0.00225362 0.9995 -0.0793768 237 202 172
-0.24639 0.9995 -0.0171035 237 202 172
0.520976 0.9995 -0.0117561 237 202 172
-0.585165 0.9995 -0.0619801 237 202 172
0.690919 0.9995 -0.0262266 237 202 172
-0.533678 0.9995 -0.0614451 237 202 172
0.937087 0.9995 -0.0678151 237 202 172
0.484713 0.9995 -0.0668864 237 202 172
-0.36115 0.9995 -0.046161 237 202 172
-0.171415 0.9995 -0.0398454 237 202 172
0.948018 0.9995 -0.0531916 237 202 172
-0.322768 0.9995 -0.0898087 237 202 172
0.435707 0.9995 -0.0217445 237 202 172
0.441201 0.9995 -0.0105223 237 202 172
0.489278 0.9995 -0.0624191 237 202 172
0.765376 0.9995 -0.00603837 237 202 172
-0.160381 0.9995 -0.0445999 237 202 172
-0.193824 0.9995 -0.0330487 237 202 172
-0.995764 0.9995 -0.0172227 237 202 172
0.527408 0.9995 -0.0733366 237 202 172
0.909496 0.9995 -0.0808061 237 202 172
-0.919792 0.9995 -0.0906157 237 202 172
0.695074 0.9995 -0.0506475 237 202 172
-0.0603463 0.9995 -0.0283375 237 202 172
-0.381568 0.9995 -0.0769145 237 202 172
0.4744 0.9995 -0.0585805 237 202 172
0.212743 0.9995 -0.0579145 237 202 172
0.54962 0.9995 -0.0773494 237 202 172
0.549066 0.9995 -0.0133505 237 202 172
0.48145 0.9995 -0.0641468 237 202 172
-0.0601894 0.9995 -0.0722346 237 202 172
0.0220855 0.9995 -0.0779747 237 202 172
0.650365 0.9995 -0.0403963 237 202 172
-0.928625 0.9995 -0.0655985 237 202 172
0.0950941 0.9995 -0.0235388 237 202 172
0.0614593 0.9995 -0.0607612 237 202 172
-0.274847 0.9995 -0.0914382 237 202 172
-0.178699 0.9995 -0.0395971 237 202 172
-0.990378 0.9995 -0.0157328 237 202 172
0.988553 0.9995 -0.0912455 237 202 172
0.729432 0.9995 -0.0749157 237 202 172
0.00219051 0.9995 -0.0489137 237 202 172
0.223023 0.9995 -0.0128083 237 202 172
0.409121 0.9995 -0.0317689 237 202 172
-0.495789 0.9995 -0.0453724 237 202 172
-0.581822 0.9995 -0.0555012 237 202 172
-0.318865 0.9995 -0.00378089 237 202 172
0.147235 0.9995 -0.0379946 237 202 172
0.01493 0.9995 -0.0590376 237 202 172
-0.000613922 0.9995 -0.0377452 237 202 172
-0.341087 0.9995 -0.0209481 237 202 172
0.680779 0.9995 -0.0719396 237 202 172
0.830343 0.9995 -0.0993414 237 202 172
0.349376 0.9995 -0.0969563 237 202 172
-0.194788 0.9995 -0.0151989 237 202 172
-0.771694 0.9995 -0.07779 237 202 172
-0.534843 0.9995 -0.0321903 237 202 172
-0.800794 0.9995 -0.086361 237 202 172
0.471376 0.9995 -0.0878729 237 202 172
0.426997 0.9995 -0.0653291 237 202 172
0.0731483 0.9995 -0.0419075 237 202 172
-0.271883 0.9995 -0.0804947 237 202 172
-0.506065 0.9995 -0.0775261 237 202 172
0.98154 0.9995 -0.0262599 237 202 172
0.325627 0.9995 -0.0443521 237 202 172
-0.42964 0.9995 -0.0403601 237 202 172
0.363436 0.9995 -0.0305285 237 202 172
-0.403068 0.9995 -0.0142988 237 202 172
-0.914229 0.9995 -0.0400408 237 202 172
-0.724013 0.9995 -0.035051 237 202 172
0.387047 0.9995 -0.0459857 237 202 172
-0.100992 0.9995 -0.0119666 237 202 172
-0.281241 0.9995 -0.0329189 237 202 172
-0.855352 0.9995 -0.0818671 237 202 172
0.355862 0.9995 -0.0951296 237 202 172
-0.0294125 0.9995 -0.0609818 237 202 172
0.0874732 0.9995 -0.0670928 237 202 172
-0.559183 0.9995 -0.0208553 237 202 172
-0.304052 0.9995 -0.0394555 237 202 172
-0.641033 0.9995 -0.0128215 237 202 172
0.107562 0.9995 -0.0553981 237 202 172
-0.826544 0.9995 -0.0912912 237 202 172
0.42453 0.9995 -0.0612016 237 202 172
-0.127168 0.9995 -0.0854798 237 202 172
0.0231607 0.9995 -0.064968 237 202 172
-0.795753 0.9995 -0.0962042 237 202 172
0.548475 0.9995 -0.0541958 237 202 172
0.181633 0.9995 -0.00838023 237 202 172
0.245822 0.9995 -0.0537817 237 202 172
0.351275 0.9995 -0.075704 237 202 172
0.393691 0.9995 -0.0254307 237 202 172
0.876155 0.9995 -0.0868737 237 202 172
-0.898459 0.9995 -0.0936765 237 202 172
0.781632 0.9995 -0.00648647 237 202 172
-0.409299 0.9995 -0.0331123 237 202 172
0.553725 0.9995 -0.0348882 237 202 172
-0.337775 0.9995 -0.00229242 237 202 172
-0.200322 0.9995 -0.0253271 237 202 172
-0.845587 0.9995 -0.0650754 237 202 172
-0.393839 0.9995 -0.0162544 237 202 172
-0.882165 0.9995 -0.0132921 237 202 172
0.8754 0.9995 -0.0268088 237 202 172
-0.000612663 0.9995 -0.0520978 237 202 172
0.823952 0.9995 -0.0650537 237 202 172
0.129115 0.9995 -0.0328961 237 202 172
-0.177766 0.9995 -0.0155123 237 202 172
0.265475 0.9995 -0.0839296 237 202 172
0.378399 0.9995 -0.00516671 237 202 172
-0.260672 0.9995 -0.0787101 237 202 172
0.753099 0.9995 -0.0802523 237 202 172
-0.764831 0.9995 -0.058458 237 202 172
0.980335 0.9995 -0.0320806 237 202 172
0.37275 0.9995 -0.0959181 237 202 172
0.0923381 0.9995 -0.0750364 237 202 172
-0.739806 0.9995 -0.0884581 237 202 172
0.490501 0.9995 -0.0428726 237 202 172
0.706635 0.9995 -0.0292046 237 202 172
-0.207939 0.9995 -0.0436087 237 202 172
0.344016 0.9995 -0.0910098 237 202 172
-0.308905 0.9995 -0.0570466 237 202 172
-0.877352 0.9995 -0.0678014 237 202 172
0.317551 0.9995 -0.031965 237 202 172
-0.961708 0.9995 -0.0494397 237 202 172
0.528868 0.9995 -0.0938745 237 202 172
-0.300766 0.9995 -0.068681 237 202 172
-0.121765 0.9995 -0.0946537 237 202 172
0.87566 0.9995 -0.04769 237 202 172
0.0916876 0.9995 -0.0158297 237 202 172
-0.302691 0.9995 -0.0215807 237 202 172
0.530811 0.9995 -0.0851486 237 202 172
0.448361 0.9995 -0.0530926 237 202 172
0.256868 0.9995 -0.00412397 237 202 172
-0.0258577 0.9995 -0.0583955 237 202 172
-0.685676 0.9995 -0.0613283 237 202 172
0.56928 0.9995 -0.0777844 237 202 172
0.366766 0.9995 -0.0321644 237 202 172
0.165196 0.9995 -0.0631645 237 202 172
-0.311961 0.9995 -0.0103892 237 202 172
0.63624 0.9995 -0.0518815 237 202 172
-0.0253549 0.9995 -0.0259516 237 202 172
0.0549532 0.9995 -0.0703133 237 202 172
0.381291 0.9995 -0.0599252 237 202 172
0.942226 0.9995 -0.0461294 237 202 172
-0.301853 0.9995 -0.0586385 237 202 172
-0.147746 0.9995 -0.0115948 237 202 172
0.295658 0.9995 -0.0236748 237 202 172
-0.0311952 0.9995 -0.0562146 237 202 172
0.905526 0.9995 -0.0200227 237 202 172
-0.4777 0.9995 -0.0972555 237 202 172
0.661566 0.9995 -0.0626619 237 202 172
-0.00660291 0.9995 -0.0499467 237 202 172
-0.572797 0.9995 -0.0154987 237 202 172
-0.580457 0.9995 -0.0199268 237 202 172
0.838721 0.9995 -0.0641886 237 202 172
-0.119419 0.9995 -0.0452275 237 202 172
0.944963 0.9995 -0.0276316 237 202 172
0.169333 0.9995 -0.0415838 237 202 172
0.423221 0.9995 -0.0368005 237 202 172
0.53724 0.9995 -0.0615853 237 202 172
0.327124 0.9995 -0.0714971 237 202 172
0.110921 0.9995 -0.0791804 237 202 172
-0.737159 0.9995 -0.0436843 237 202 172
0.496019 0.9995 -0.0221685 237 202 172
-0.847548 0.9995 -0.00138053 237 202 172
-0.947849 0.9995 -0.0387925 237 202 172
0.91355 0.9995 -0.0877078 237 202 172
-0.343912 0.9995 -0.0153222 237 202 172
-0.252801 0.9995 -0.0842566 237 202 172
-0.48521 0.9995 -0.0236508 237 202 172
0.34023 0.9995 -0.0472028 237 202 172
0.431841 0.9995 -0.00393271 237 202 172
0.740576 0.9995 -0.0274544 237 202 172
0.462386 0.9995 -0.0135595 237 202 172
-0.539594 0.9995 -0.0476715 237 202 172
0.132986 0.9995 -0.0299693 237 202 172
-0.315906 0.9995 -0.0380196 237 202 172
0.96748 0.9995 -0.0327693 237 202 172
-0.828388 0.9995 -0.0328093 237 202 172
0.621255 0.9995 -0.0210045 237 202 172
0.679741 0.9995 -0.0340753 237 202 172
-0.0261529 0.9995 -0.0449369 237 202 172
-0.0570957 0.9995 -0.0928031 237 202 172
0.770064 0.9995 -0.0739582 237 202 172
-0.923196 0.9995 -0.090034 237 202 172
0.0825828 0.9995 -0.0443479 237 202 172
0.981542 0.9995 -0.0971087 237 202 172
-0.565829 0.9995 -0.0146029 237 202 172
-0.902855 0.9995 -0.00615358 237 202 172
0.273403 0.9995 -0.0344169 237 202 172
0.999016 0.9995 -0.094956 237 202 172
0.836422 0.9995 -0.0297689 237 202 172
-0.358908 0.9995 -0.00698416 237 202 172
0.296948 0.9995 -0.0816209 237 202 172
0.103701 0.9995 -0.0040294 237 202 172
0.793437 0.9995 -0.021246 237 202 172
-0.809074 0.9995 -0.0888736 237 202 172
0.305184 0.9995 -0.0137939 237 202 172
-0.916818 0.9995 -0.0109252 237 202 172
-0.63871 0.9995 -0.0415317 237 202 172
-0.666088 0.9995 -0.0555703 237 202 172
-0.614719 0.9995 -0.0941108 237 202 172
-0.115509 0.9995 -0.00545671 237 202 172
-0.557444 0.9995 -0.0603192 237 202 172
0.576789 0.9995 -0.0196079 237 202 172
0.0206438 0.9995 -0.0154819 237 202 172
-0.928171 0.9995 -0.0294408 237 202 172
0.891172 0.9995 -0.0847548 237 202 172
0.803 0.9995 -0.0103813 237 202 172
-0.955228 0.9995 -0.00671855 237 202 172
0.55858 0.9995 -0.0745974 237 202 172
-0.482922 0.9995 -0.0636224 237 202 172
-0.859452 0.9995 -0.0429078 237 202 172
0.388716 0.9995 -0.0197938 237 202 172
0.655087 0.9995 -0.0490117 237 202 172
0.662739 0.9995 -0.0387025 237 202 172
-0.483891 0.9995 -0.0457801 237 202 172
0.0970889 0.9995 -0.0468586 237 202 172
0.330805 0.9995 -0.0382562 237 202 172
-0.432869 0.9995 -0.0364005 237 202 172
-0.89012 0.9995 -0.039241 237 202 172
-0.59206 0.9995 -0.0991921 237 202 172
0.292836 0.9995 -0.0961033 237 202 172
-0.73426 0.9995 -0.0208862 237 202 172
0.339107 0.9995 -0.0531219 237 202 172
0.673052 0.9995 -0.0645863 237 202 172
-0.0178423 0.9995 -0.0377858 237 202 172
-0.800683 0.9995 -0.0541728 237 202 172
0.811286 0.9995 -0.0909378 237 202 172
0.275866 0.9995 -0.0172707 237 202 172
0.659744 0.9995 -0.0210601 237 202 172
-0.136893 0.9995 -0.0638133 237 202 172
0.0804398 0.9995 -0.0914347 237 202 172
-0.161961 0.9995 -0.0726325 237 202 172
0.384072 0.9995 -0.0614986 237 202 172
0.0993428 0.9995 -0.03846 237 202 172
-0.187507 0.9995 -0.0309399 237 202 172
-0.677861 0.9995 -0.036339 237 202 172
-0.976666 0.9995 -0.0116389 237 202 172
0.950034 0.9995 -0.0606514 237 202 172
-0.264291 0.9995 -0.0591617 237 202 172
-0.56509 0.9995 -0.0205642 237 202 172
0.754818 0.9995 -0.0312626 237 202 172
0.379611 0.9995 -0.00382249 237 202 172
0.74211 0.9995 -0.0683051 237 202 172
0.159266 0.9995 -0.00420884 237 202 172
-0.660353 0.9995 -0.0697519 237 202 172
0.086011 0.9995 -0.0711859 237 202 172
-0.00632399 0.9995 -0.064701 237 202 172
-0.718601 0.9995 -0.064438 237 202 172
0.347903 0.9995 -0.0236177 237 202 172
0.992633 0.9995 -0.0126284 237 202 172
0.00731876 0.9995 -0.0359764 237 202 172
0.340015 0.9995 -0.0987573 237 202 172
0.106656 0.9995 -0.0820519 237 202 172
-0.205802 0.9995 -0.00661872 237 202 172
-0.0387263 0.9995 -0.0540021 237 202 172
0.43415 0.9995 -0.0592165 237 202 172
0.871254 0.9995 -0.0645015 237 202 172
0.0822746 0.9995 -0.0111476 237 202 172
0.0102387 0.9995 -0.0034038 237 202 172
-0.0523669 0.9995 -0.0553762 237 202 172
0.976388 0.9995 -0.0816082 237 202 172
-0.363286 0.9995 -0.0514423 237 202 172
-0.998649 0.9995 -0.0175519 237 202 172
0.42456 0.9995 -0.0181092 237 202 172
0.537486 0.9995 -0.0641566 237 202 172
-0.178922 0.9995 -0.0260089 237 202 172
0.528027 0.9995 -0.0859217 237 202 172
-0.362587 0.9995 -0.040052 237 202 172
-0.214084 0.9995 -0.0994964 237 202 172
0.834286 0.9995 -0.0951248 237 202 172
0.77223 0.9995 -0.0475042 237 202 172
-0.39267 0.9995 -0.0631956 237 202 172
0.878777 0.9995 -0.0355981 237 202 172
0.30086 0.9995 -0.0288449 237 202 172
-0.417613 0.9995 -0.0849401 237 202 172
-0.577974 0.9995 -0.0884882 237 202 172
0.391921 0.9995 -0.0392565 237 202 172
0.825975 0.9995 -0.0270179 237 202 172
-0.349325 0.9995 -0.0419502 237 202 172
-0.708943 0.9995 -0.0133677 237 202 172
0.394811 0.9995 -0.0465334 237 202 172
-0.344414 0.9995 -0.0295207 237 202 172
-0.286081 0.9995 -0.0146083 237 202 172
0.278675 0.9995 -0.0834293 237 202 172
0.605534 0.9995 -0.00325415 237 202 172
0.787804 0.9995 -0.0816166 237 202 172
0.936962 0.9995 -0.0962045 237 202 172
-0.925723 0.9995 -0.0506842 237 202 172
0.255972 0.9995 -0.0433057 237 202 172
0.280782 0.9995 -0.0217461 237 202 172
-0.338088 0.9995 -0.0984691 237 202 172
-0.530656 0.9995 -0.071797 237 202 172
-0.748297 0.9995 -0.0186866 237 202 172
0.0367374 0.9995 -0.0410737 237 202 172
0.979015 0.9995 -0.0386296 237 202 172
0.168203 0.9995 -0.0412445 237 202 172
0.898918 0.9995 -0.0628337 237 202 172
0.655963 0.9995 -0.0476257 237 202 172
-0.612756 0.9995 -0.0182035 237 202 172
0.208531 0.9995 -0.00573538 237 202 172
0.117481 0.9995 -0.0211619 237 202 172
0.0842409 0.9995 -0.0186616 237 202 172
-0.949896 0.9995 -0.0633729 237 202 172
0.941798 0.9995 -0.0607669 237 202 172
0.297903 0.9995 -0.0329254 237 202 172
0.528908 0.9995 -0.0308732 237 202 172
-0.554307 0.9995 -0.00575979 237 202 172
0.691362 0.9995 -0.0165873 237 202 172
0.642633 0.9995 -0.0199916 237 202 172
0.549264 0.9995 -0.092913 237 202 172
0.801172 0.9995 -0.0804687 237 202 172
0.389405 0.9995 -0.0565908 237 202 172
-0.168454 0.9995 -0.0187694 237 202 172
-0.739082 0.9995 -0.00710468 237 202 172
0.33127 0.9995 -0.0929983 237 202 172
0.674562 0.9995 -0.0275199 237 202 172
-0.0228595 0.9995 -0.0821352 237 202 172
-0.0351981 0.9995 -0.0816293 237 202 172
-0.508473 0.9995 -0.0145544 237 202 172
0.616649 0.9995 -0.0310673 237 202 172
0.701072 0.9995 -0.054884 237 202 172
0.949195 0.9995 -0.0342176 237 202 172
0.160901 0.9995 -0.0641002 237 202 172
-0.367255 0.9995 -0.050019 237 202 172
-0.719484 0.9995 -0.025245 237 202 172
0.181406 0.9995 -0.0805265 237 202 172
0.970257 0.9995 -0.0651617 237 202 172
0.301462 0.9995 -0.0709849 237 202 172
0.145797 0.9995 -0.0798913 237 202 172
0.252117 0.9995 -0.0444886 237 202 172
0.3574 0.9995 -0.0948541 237 202 172
0.875704 0.9995 -0.0179118 237 202 172
0.105945 0.9995 -0.0147967 237 202 172
0.980663 0.9995 -0.041746 237 202 172
-0.160223 0.9995 -0.0154502 237 202 172
-0.9814 0.9995 -0.0725367 237 202 172
0.970264 0.9995 -0.0289955 237 202 172
0.847608 0.9995 -0.089353 237 202 172
0.933575 0.9995 -0.0924832 237 202 172
-0.565894 0.9995 -0.045215 237 202 172
0.533166 0.9995 -0.0316313 237 202 172
0.767034 0.9995 -0.0860621 237 202 172
-0.545222 0.9995 -0.051445 237 202 172
0.43122 0.9995 -0.0212532 237 202 172
-0.142192 0.9995 -0.0832278 237 202 172
0.550912 0.9995 -0.0544332 237 202 172
-0.766473 0.9995 -0.0697318 237 202 172
0.219394 0.9995 -0.0978226 237 202 172
-0.389593 0.9995 -0.0671477 237 202 172
-0.607884 0.9995 -0.0348785 237 202 172
-0.82738 0.9995 -0.015743 237 202 172
0.452654 0.9995 -0.0163467 237 202 172
-0.0894269 0.9995 -0.0317355 237 202 172
0.399269 0.9995 -0.0883544 237 202 172
0.98422 0.9995 -0.0972294 237 202 172
0.473459 0.9995 -0.0392911 237 202 172
0.943633 0.9995 -0.00458987 237 202 172
-0.32861 0.9995 -0.0595562 237 202 172
-0.18259 0.9995 -0.0773944 237 202 172
-0.594494 0.9995 -0.0642537 237 202 172
-0.258308 0.9995 -0.0931308 237 202 172
0.180317 0.9995 -0.0873139 237 202 172
-0.0216305 0.9995 -0.0930411 237 202 172
0.104959 0.9995 -0.0258263 237 202 172
-0.82589 0.9995 -0.0029508 237 202 172
-0.466771 0.9995 -0.0868759 237 202 172
0.864435 0.9995 -0.00175724 237 202 172
-0.70824 0.9995 -0.0982872 237 202 172
-0.990737 0.9995 -0.0912246 237 202 172
0.390374 0.9995 -0.0303764 237 202 172
-0.00973753 0.9995 -0.0195451 237 202 172
0.579798 0.9995 -0.0234327 237 202 172
-0.683429 0.9995 -0.0795689 237 202 172
-0.678292 0.9995 -0.0620737 237 202 172
0.553307 0.9995 -0.0563137 237 202 172
-0.383579 0.9995 -0.0935044 237 202 172
0.227916 0.9995 -0.0992314 237 202 172
-0.202378 0.9995 -0.0173836 237 202 172
-0.168811 0.9995 -0.071139 237 202 172
0.657328 0.9995 -0.0579346 237 202 172
0.376271 0.9995 -0.012786 237 202 172
0.102745 0.9995 -0.0478801 237 202 172
0.185536 0.9995 -0.0437611 237 202 172
0.133649 0.9995 -0.0510433 237 202 172
0.587872 0.9995 -0.0390405 237 202 172
-0.511988 0.9995 -0.08574 237 202 172
0.960305 0.9995 -0.0962853 237 202 172
-0.98577 0.9995 -0.00455332 237 202 172
0.613529 0.9995 -0.0126762 237 202 172
0.304862 0.9995 -0.0844117 237 202 172
-0.455125 0.9995 -0.015267 237 202 172
-0.58376 0.9995 -0.0563618 237 202 172
0.648129 0.9995 -0.0947123 237 202 172
0.491718 0.9995 -0.010114 237 202 172
0.454194 0.9995 -0.0680873 237 202 172
-0.860399 0.9995 -0.0710215 237 202 172
-0.67184 0.9995 -0.0193931 237 202 172
-0.438696 0.9995 -0.012584 237 202 172
-0.250468 0.9995 -0.0121749 237 202 172
0.475604 0.9995 -0.0236373 237 202 172
0.873597 0.9995 -0.0331773 237 202 172
-0.845422 0.9995 -0.0910946 237 202 172
0.148266 0.9995 -0.0675252 237 202 172
-0.515488 0.9995 -0.0271881 237 202 172
0.250504 0.9995 -0.0542701 237 202 172
-0.688217 0.9995 -0.0246578 237 202 172
0.28911 0.9995 -0.0142583 237 202 172
-0.567684 0.9995 -0.0115162 237 202 172
-0.131081 0.9995 -0.00495173 237 202 172
-0.111651 0.9995 -0.0510238 237 202 172
0.307354 0.9995 -0.0892968 237 202 172
-0.314171 0.9995 -0.0789587 237 202 172
-0.217692 0.9995 -0.0052567 237 202 172
0.37719 0.9995 -0.0819604 237 202 172
0.0992467 0.9995 -0.065785 237 202 172
-0.294148 0.9995 -0.0334337 237 202 172
-0.183035 0.9995 -0.0958966 237 202 172
-0.5736 0.9995 -0.0359566 237 202 172
-0.272897 0.9995 -0.0594488 237 202 172
-0.750858 0.9995 -0.0471033 237 202 172
-0.277969 0.9995 -0.0770914 237 202 172
0.0717737 0.9995 -0.0699108 237 202 172
-0.977092 0.9995 -0.0785255 237 202 172
0.139758 0.9995 -0.0256486 237 202 172
-0.119931 0.9995 -0.0110538 237 202 172
0.0511557 0.9995 -0.0689357 237 202 172
0.901782 0.9995 -0.0894105 237 202 172
-0.881462 0.9995 -0.00942871 237 202 172
0.476204 0.9995 -0.0923759 237 202 172
0.596172 0.9995 -0.0235659 237 202 172
-0.592417 0.9995 -0.027806 237 202 172
-0.897093 0.9995 -0.0740284 237 202 172
-0.753543 0.9995 -0.00493596 237 202 172
-0.503952 0.9995 -0.0307297 237 202 172
0.396342 0.9995 -0.0427231 237 202 172
-0.443199 0.9995 -0.0940344 237 202 172
0.0263314 0.9995 -0.0392375 237 202 172
0.324045 0.9995 -0.0597537 237 202 172
0.0368684 0.9995 -0.0297317 237 202 172
-0.00522148 0.9995 -0.0660879 237 202 172
0.771271 0.9995 -0.0437493 237 202 172
0.292717 0.9995 -0.0474786 237 202 172
0.706867 0.9995 -0.0467294 237 202 172
0.717986 0.9995 -0.0185861 237 202 172
0.0478089 0.9995 -0.0634842 237 202 172
-0.246967 0.9995 -0.0354646 237 202 172
0.543506 0.9995 -0.0573835 237 202 172
-0.578327 0.9995 -0.0014986 237 202 172
-0.630175 0.9995 -0.0603322 237 202 172
-0.152292 0.9995 -0.054671 237 202 172
0.335421 0.9995 -0.0582387 237 202 172
0.55505 0.9995 -0.0804295 237 202 172
-0.0305683 0.9995 -0.0755519 237 202 172
0.725354 0.9995 -0.0800811 237 202 172
-0.372209 0.9995 -0.0375624 237 202 172
-0.486003 0.9995 -0.0861653 237 202 172
0.0773238 0.9995 -0.0606656 237 202 172
0.775879 0.9995 -0.0107596 237 202 172
0.166989 0.9995 -0.0374574 237 202 172
0.697598 0.9995 -0.0457903 237 202 172
0.198355 0.9995 -0.0739975 237 202 172
-0.0269126 0.9995 -0.0682259 237 202 172
0.96339 0.9995 -0.061911 237 202 172
0.0641085 0.9995 -0.0672847 237 202 172
0.110521 0.9995 -0.0135875 237 202 172
0.980994 0.9995 -0.0923373 237 202 172
-0.997064 0.9995 -0.0336931 237 202 172
0.218945 0.9995 -0.0727693 237 202 172
-0.445441 0.9995 -0.0160398 237 202 172
-0.54272 0.9995 -0.0245629 237 202 172
0.0725922 0.9995 -0.00846621 237 202 172
0.576187 0.9995 -0.0865995 237 202 172
0.101134 0.9995 -0.0940868 237 202 172
0.0846953 0.9995 -0.019049 237 202 172
0.806025 0.9995 -0.00552335 237 202 172
-0.243572 0.9995 -0.05817 237 202 172
0.689363 0.9995 -0.0840071 237 202 172
0.590141 0.9995 -0.0224928 237 202 172
-0.837873 0.9995 -0.0959907 237 202 172
-0.117908 0.9995 -0.00832715 237 202 172
-0.838087 0.9995 -0.0857487 237 202 172
-0.225059 0.9995 -0.0249896 237 202 172
-0.938514 0.9995 -0.0439857 237 202 172
-0.33374 0.9995 -0.0497782 237 202 172
-0.203744 0.9995 -0.0277973 237 202 172
0.717147 0.9995 -0.0456788 237 202 172
0.945847 0.9995 -0.016288 237 202 172
0.0126194 0.9995 -0.0324276 237 202 172
-0.59749 0.9995 -0.0591821 237 202 172
-0.954155 0.9995 -0.0944677 237 202 172
-0.880867 0.9995 -0.0420204 237 202 172
-0.409938 0.9995 -0.0884325 237 202 172
-0.96481 0.9995 -0.0552727 237 202 172
-0.345278 0.9995 -0.0688978 237 202 172
-0.425172 0.9995 -0.055193 237 202 172
0.120134 0.9995 -0.0202005 237 202 172
-0.109654 0.9995 -0.0681237 237 202 172
0.680814 0.9995 -0.0928579 237 202 172
-0.456828 0.9995 -0.0458799 237 202 172
-0.111381 0.9995 -0.0816998 237 202 172
-0.336264 0.9995 -0.0101332 237 202 172
-0.114611 0.9995 -0.0252405 237 202 172
-0.988656 0.9995 -0.0787311 237 202 172
-0.345243 0.9995 -0.0808778 237 202 172
0.717688 0.9995 -0.0638794 237 202 172
-0.970465 0.9995 -0.0599898 237 202 172
0.197735 0.9995 -0.0390951 237 202 172
-0.108572 0.9995 -0.00657293 237 202 172
0.778798 0.9995 -0.00103088 237 202 172
0.253544 0.9995 -0.0366129 237 202 172
0.714113 0.9995 -0.0777622 237 202 172
-0.213672 0.9995 -0.0216806 237 202 172
-0.373217 0.9995 -0.0712036 237 202 172
-0.0339061 0.9995 -0.0343744 237 202 172
0.176799 0.9995 -0.0704956 237 202 172
-0.120028 0.9995 -0.0277875 237 202 172
-0.326152 0.9995 -0.088665 237 202 172
-0.688222 0.9995 -0.0319195 237 202 172
0.332097 0.9995 -0.0219856 237 202 172
0.620183 0.9995 -0.0645044 237 202 172
0.926952 0.9995 -0.0115647 237 202 172
-0.219045 0.9995 -0.0127621 237 202 172
-0.0118386 0.9995 -0.0917948 237 202 172
0.261707 0.9995 -0.00961055 237 202 172
0.842149 0.9995 -0.0630408 237 202 172
-0.734652 0.9995 -0.0180485 237 202 172
-0.885937 0.9995 -0.0305137 237 202 172
0.857331 0.9995 -0.0728246 237 202 172
0.152696 0.9995 -0.0780055 237 202 172
-0.74331 0.9995 -0.0933367 237 202 172
0.180383 0.9995 -0.0177959 237 202 172
-0.108609 0.9995 -0.0805544 237 202 172
-0.378109 0.9995 -0.0211446 237 202 172
-0.662696 0.9995 -0.097723 237 202 172
-0.788433 0.9995 -0.0473522 237 202 172
-0.549442 0.9995 -0.00328195 237 202 172
0.0871788 0.9995 -0.0110286 237 202 172
0.532692 0.9995 -0.0080448 237 202 172
0.487312 0.9995 -0.0817142 237 202 172
-0.709875 0.9995 -0.00490372 237 202 172
-0.384519 0.9995 -0.0351457 237 202 172
-0.286836 0.9995 -0.000886503 237 202 172
0.291923 0.9995 -0.0166509 237 202 172
-0.671881 0.9995 -0.0765069 237 202 172
-0.690702 0.9995 -0.0054151 237 202 172
0.742558 0.9995 -0.0712934 237 202 172
-0.241814 0.9995 -0.0441782 237 202 172
0.051438 0.9995 -0.0537805 237 202 172
-0.359254 0.9995 -0.0224361 237 202 172
-0.660612 0.9995 -0.0709531 237 202 172
-0.866977 0.9995 -0.0683975 237 202 172
0.460587 0.9995 -0.0839089 237 202 172
0.468837 0.9995 -0.0132595 237 202 172
-0.728176 0.9995 -0.0422784 237 202 172
0.359183 0.9995 -0.0514819 237 202 172
0.473967 0.9995 -0.0225961 237 202 172
0.192558 0.9995 -0.0872622 237 202 172
-0.486066 0.9995 -0.0982632 237 202 172
-0.740373 0.9995 -0.0739483 237 202 172
-0.835965 0.9995 -0.0922771 237 202 172
0.456332 0.9995 -0.00642849 237 202 172
0.261827 0.9995 -0.0896451 237 202 172
-0.917116 0.9995 -0.0605951 237 202 172
0.554843 0.9995 -0.0363526 237 202 172
-0.898649 0.9995 -0.0723142 237 202 172
0.0674477 0.9995 -0.0348777 237 202 172
0.890947 0.9995 -0.0227719 237 202 172
-0.595317 0.9995 -0.0902415 237 202 172
-0.121862 0.9995 -0.0514815 237 202 172
0.760592 0.9995 -0.0508947 237 202 172
0.242908 0.9995 -0.0826185 237 202 172
-0.00956449 0.9995 -0.0204429 237 202 172
0.495397 0.9995 -0.0896088 237 202 172
0.726042 0.9995 -0.0516789 237 202 172
0.653462 0.9995 -0.00605874 237 202 172
0.903862 0.9995 -0.0109952 237 202 172
0.223798 0.9995 -0.0332933 237 202 172
0.610631 0.9995 -0.0386024 237 202 172
-0.244567 0.9995 -0.00360249 237 202 172
0.118515 0.9995 -0.0216312 237 202 172
-0.153596 0.9995 -0.0897364 237 202 172
0.694388 0.9995 -0.00867311 237 202 172
-0.431757 0.9995 -0.00662805 237 202 172
-0.265403 0.9995 -0.0260672 237 202 172
-0.193449 0.9995 -0.0183069 237 202 172
-0.900043 0.9995 -0.0190166 237 202 172
-0.150591 0.9995 -0.0497763 237 202 172
-0.179547 0.9995 -0.0192355 237 202 172
-0.480716 0.9995 -0.0705258 237 202 172
0.464268 0.9995 -0.0789454 237 202 172
-0.31353 0.9995 -0.00565459 237 202 172
-0.556468 0.9995 -0.092407 237 202 172
0.33071 0.9995 -0.0311255 237 202 172
0.13572 0.9995 -0.0828196 237 202 172
-0.491446 0.9995 -0.0440434 237 202 172
-0.732153 0.9995 -0.0563561 237 202 172
0.660102 0.9995 -0.0168112 237 202 172
0.889399 0.9995 -0.0907504 237 202 172
-0.25552 0.9995 -0.027552 237 202 172
-0.02821 0.9995 -0.0767967 237 202 172
0.0668577 0.9995 -0.00141443 237 202 172
0.428358 0.9995 -0.0521874 237 202 172
0.0659942 0.9995 -0.0946777 237 202 172
0.0175568 0.9995 -0.0165857 237 202 172
0.952719 0.9995 -0.0473892 237 202 172
0.16208 0.9995 -0.0908599 237 202 172
-0.542295 0.9995 -0.0618985 237 202 172
0.161971 0.9995 -0.00967196 237 202 172
0.493189 0.9995 -0.0786119 237 202 172
0.320046 0.9995 -0.0541452 237 202 172
0.85509 0.9995 -0.00318452 237 202 172
0.656899 0.9995 -0.0539264 237 202 172
0.695403 0.9995 -0.0756274 237 202 172
0.754762 0.9995 -0.0229505 237 202 172
-0.225102 0.9995 -0.0585084 237 202 172
-0.0335813 0.9995 -0.0765501 237 202 172
-0.276154 0.9995 -0.0442779 237 202 172
0.645096 0.9995 -0.0934639 237 202 172
-0.893215 0.9995 -0.0902984 237 202 172
0.98628 0.9995 -0.0575109 237 202 172
-0.135777 0.9995 -0.0584608 237 202 172
-0.192282 0.9995 -0.0510854 237 202 172
0.40116 0.9995 -0.07626 237 202 172
-0.464833 0.9995 -0.00318647 237 202 172
-0.046518 0.9995 -0.0830152 237 202 172
-0.791087 0.9995 -0.0150833 237 202 172
-0.802978 0.9995 -0.0381811 237 202 172
0.764326 0.9995 -0.0237852 237 202 172
-0.138787 0.9995 -0.0359011 237 202 172
-0.847785 0.9995 -0.0887791 237 202 172
-0.379146 0.9995 -0.0986275 237 202 172
0.772148 0.9995 -0.0203643 237 202 172
-0.707174 0.9995 -0.0966597 237 202 172
-0.857858 0.9995 -0.0424302 237 202 172
0.000716605 0.9995 -0.0590569 237 202 172
0.551302 0.9995 -0.0752867 237 202 172
0.627061 0.9995 -0.0448971 237 202 172
0.903919 0.9995 -0.0856718 237 202 172
-0.39312 0.9995 -0.0508024 237 202 172
0.556661 0.9995 -0.0668145 237 202 172
-0.833253 0.9995 -0.00854467 237 202 172
0.294173 0.9995 -0.0536508 237 202 172
0.515328 0.9995 -0.0599288 237 202 172
-0.0271468 0.9995 -0.0827268 237 202 172
-0.596054 0.9995 -0.0423008 237 202 172
-0.332557 0.9995 -0.0435551 237 202 172
-0.734824 0.9995 -0.0151023 237 202 172
0.955269 0.9995 -0.0147889 237 202 172
-0.737858 0.9995 -0.08201 237 202 172
-0.919376 0.9995 -0.0390366 237 202 172
-0.549778 0.9995 -0.0723106 237 202 172
-0.206184 0.9995 -0.0732038 237 202 172
0.210198 0.9995 -0.0531176 237 202 172
0.861928 0.9995 -0.00923182 237 202 172
-0.193898 0.9995 -0.0276181 237 202 172
0.624211 0.9995 -0.0500686 237 202 172
-0.197686 0.9995 -0.00504941 237 202 172
-0.573634 -0.9995 -0.0217259 237 202 172
0.417734 -0.9995 -0.0127418 237 202 172
0.495831 -0.9995 -0.025794 237 202 172
0.454052 -0.9995 -0.0408727 237 202 172
0.652526 -0.9995 -0.0659611 237 202 172
0.139883 -0.9995 -0.0216885 237 202 172
0.564158 -0.9995 -0.0345207 237 202 172
0.607355 -0.9995 -0.0505372 237 202 172
-0.568552 -0.9995 -0.0116542 237 202 172
0.123889 -0.9995 -0.0347248 237 202 172
-0.624042 -0.9995 -0.0730603 237 202 172
-0.515861 -0.9995 -0.0833824 237 202 172
0.482671 -0.9995 -0.088719 237 202 172
0.507941 -0.9995 -0.058533 237 202 172
0.530629 -0.9995 -0.0551618 237 202 172
0.128455 -0.9995 -0.0810314 237 202 172
0.895569 -0.9995 -0.078902 237 202 172
-0.90239 -0.9995 -0.0261716 237 202 172
-0.99067 -0.9995 -0.0536777 237 202 172
0.800526 -0.9995 -0.0897628 237 202 172
-0.285743 -0.9995 -0.0914348 237 202 172
-0.86048 -0.9995 -0.0804086 237 202 172
-0.280537 -0.9995 -0.0930608 237 202 172
-0.516256 -0.9995 -0.0551257 237 202 172
-0.711349 -0.9995 -0.00513022 237 202 172
-0.727438 -0.9995 -0.0782161 237 202 172
0.754199 -0.9995 -0.0473573 237 202 172
-0.674692 -0.9995 -0.0107696 237 202 172
-0.593686 -0.9995 -0.0519217 237 202 172
0.491025 -0.9995 -0.0983722 237 202 172
0.920005 -0.9995 -0.0118435 237 202 172
0.528181 -0.9995 -0.0533311 237 202 172
-0.775549 -0.9995 -0.0187071 237 202 172
0.389831 -0.9995 -0.0437677 237 202 172
0.818443 -0.9995 -0.0962039 237 202 172
0.356259 -0.9995 -0.0881462 237 202 172
0.0315339 -0.9995 -0.0969675 237 202 172
-0.199669 -0.9995 -0.0220579 237 202 172
0.300989 -0.9995 -0.0515171 237 202 172
0.526505 -0.9995 -0.0527052 237 202 172
0.26364 -0.9995 -0.0907109 237 202 172
-0.319255 -0.9995 -0.0732754 237 202 172
0.338464 -0.9995 -0.0425246 237 202 172
0.805327 -0.9995 -0.0925104 237 202 172
-0.062894 -0.9995 -0.0391184 237 202 172
0.582817 -0.9995 -0.0187951 237 202 172
