ply
format ascii 1.0
comment Created by Open3D
element vertex 1268
property double x
property double y
property double z
property uchar red
property uchar green
property uchar blue
end_header
-0.0740572 -0.0231816 0.0305 0 100 0
-0.0801152 -0.0544281 0.0305 0 100 0
-0.0548549 0.123788 0.0305 0 100 0
-0.0859439 -0.0621024 0.0305 0 100 0
-0.0583548 0.0714021 0.0305 0 100 0
-0.0547513 -0.0592137 0.0305 0 100 0
-0.0893027 0.0829675 0.0305 0 100 0
-0.048297 0.00580971 0.0305 0 100 0
-0.0568156 -0.0754376 0.0305 0 100 0
-0.063623 0.0844356 0.0305 0 100 0
-0.0541833 0.0733709 0.0305 0 100 0
-0.0422975 0.0098434 0.0305 0 100 0
-0.0527475 0.0528341 0.0305 0 100 0
-0.0747414 -0.000979909 0.0305 0 100 0
-0.0690275 0.0820221 0.0305 0 100 0
-0.0886164 0.0679267 0.0305 0 100 0
-0.0893356 -0.0066054 0.0305 0 100 0
-0.0782424 -0.105768 0.0305 0 100 0
-0.0589567 -0.11687 0.0305 0 100 0
-0.078132 -0.100198 0.0305 0 100 0
-0.0777721 -0.0410487 0.0305 0 100 0
-0.0889428 -0.0163672 0.0305 0 100 0
-0.0764172 0.118519 0.0305 0 100 0
-0.0733088 -0.0445615 0.0305 0 100 0
-0.0668798 -0.00504119 0.0305 0 100 0
-0.0443119 -0.0319389 0.0305 0 100 0
-0.0767381 -0.0660214 0.0305 0 100 0
-0.0721324 -0.0742664 0.0305 0 100 0
-0.0525878 -0.0389864 0.0305 0 100 0
-0.0814257 0.0681794 0.0305 0 100 0
-0.0784563 -0.0866803 0.0305 0 100 0
-0.0880633 0.0364484 0.0305 0 100 0
-0.0837338 -0.102375 0.0305 0 100 0
-0.0597297 -0.0461678 0.0305 0 100 0
-0.076192 -0.0613172 0.0305 0 100 0
-0.070541 0.0834257 0.0305 0 100 0
-0.0799489 -0.0455412 0.0305 0 100 0
-0.0573849 0.0234972 0.0305 0 100 0
-0.0871713 -0.0724397 0.0305 0 100 0
-0.0562936 0.00397373 0.0305 0 100 0
-0.0548519 0.0115537 0.0305 0 100 0
-0.0800834 0.12224 0.0305 0 100 0
-0.0772522 -0.0618122 0.0305 0 100 0
-0.0684925 0.00278527 0.0305 0 100 0
-0.0721887 0.011543 0.0305 0 100 0
-0.0601226 -0.0621568 0.0305 0 100 0
-0.0873684 0.0725639 0.0305 0 100 0
-0.0726473 0.102168 0.0305 0 100 0
-0.0623838 0.012492 0.0305 0 100 0
-0.0509033 0.111976 0.0305 0 100 0
-0.0551779 -0.0248669 0.0305 0 100 0
-0.0883298 -0.0729834 0.0305 0 100 0
-0.0558346 0.0270231 0.0305 0 100 0
-0.0891394 0.00145673 0.0305 0 100 0
-0.0432901 -0.0412817 0.0305 0 100 0
-0.0553002 0.0573901 0.0305 0 100 0
-0.0753231 0.0138969 0.0305 0 100 0
-0.0800133 -0.0525947 0.0305 0 100 0
-0.0623641 -0.0800594 0.0305 0 100 0
-0.0774762 0.0786973 0.0305 0 100 0
-0.0694602 -0.124229 0.0305 0 100 0
-0.075151 -0.00896621 0.0305 0 100 0
-0.0561439 -0.0861761 0.0305 0 100 0
-0.0459119 0.00122333 0.0305 0 100 0
-0.0775345 -0.0101821 0.0305 0 100 0
-0.0678629 -0.0663345 0.0305 0 100 0
-0.0570279 0.0490698 0.0305 0 100 0
-0.0809306 -0.0699056 0.0305 0 100 0
-0.0807646 -0.0988576 0.0305 0 100 0
-0.0717496 -0.0824263 0.0305 0 100 0
-0.0496274 0.00246005 0.0305 0 100 0
-0.0658919 0.088807 0.0305 0 100 0
-0.0544971 0.101516 0.0305 0 100 0
-0.0716209 -0.0356719 0.0305 0 100 0
-0.0738359 -0.0568113 0.0305 0 100 0
-0.0496647 0.000546877 0.0305 0 100 0
-0.0868528 0.00928459 0.0305 0 100 0
-0.0822294 -0.103877 0.0305 0 100 0
-0.0746118 -0.0600604 0.0305 0 100 0
-0.0607803 0.00280167 0.0305 0 100 0
-0.0576331 -0.0713877 0.0305 0 100 0
-0.0890311 0.00092957 0.0305 0 100 0
-0.0813161 -0.117824 0.0305 0 100 0
-0.08455 0.0519758 0.0305 0 100 0
-0.0503003 -0.00463843 0.0305 0 100 0
-0.0429646 -0.0422839 0.0305 0 100 0
-0.0862876 -0.111794 0.0305 0 100 0
-0.0864311 0.0322612 0.0305 0 100 0
-0.0789361 0.0180004 0.0305 0 100 0
-0.0803392 -0.0287433 0.0305 0 100 0
-0.0570828 -0.0235575 0.0305 0 100 0
-0.0660445 0.0652211 0.0305 0 100 0
-0.0444132 0.0113411 0.0305 0 100 0
-0.0457952 0.0709404 0.0305 0 100 0
-0.0662308 -0.119862 0.0305 0 100 0
-0.0774693 0.0192388 0.0305 0 100 0
-0.0723251 0.0136342 0.0305 0 100 0
-0.0531413 -0.0985514 0.0305 0 100 0
-0.0658063 0.0356828 0.0305 0 100 0
-0.0486122 -0.0446347 0.0305 0 100 0
-0.0701195 0.0140614 0.0305 0 100 0
-0.0683974 0.0076344 0.0305 0 100 0
-0.0615531 0.0974296 0.0305 0 100 0
-0.0740975 0.00378753 0.0305 0 100 0
-0.0852899 -0.0611034 0.0305 0 100 0
-0.0642875 0.10558 0.0305 0 100 0
-0.0549007 0.0499305 0.0305 0 100 0
-0.0783816 -0.110943 0.0305 0 100 0
-0.0491472 0.0719803 0.0305 0 100 0
-0.0716545 0.0896529 0.0305 0 100 0
-0.0444789 -0.11663 0.0305 0 100 0
-0.0449774 -0.0446229 0.0305 0 100 0
-0.0588246 0.0722765 0.0305 0 100 0
-0.0865602 -0.0977979 0.0305 0 100 0
-0.0732738 -0.0792955 0.0305 0 100 0
-0.0634737 -0.112789 0.0305 0 100 0
-0.0664689 -0.0169994 0.0305 0 100 0
-0.0745793 0.0618017 0.0305 0 100 0
-0.0557724 -0.000852468 0.0305 0 100 0
-0.0633024 0.086019 0.0305 0 100 0
-0.0677816 -0.101056 0.0305 0 100 0
-0.0741208 0.102411 0.0305 0 100 0
-0.0854218 0.0356842 0.0795 0 100 0
-0.0526671 0.0662103 0.0795 0 100 0
-0.067539 0.111145 0.0795 0 100 0
-0.0683515 0.0562681 0.0795 0 100 0
-0.0824386 0.106509 0.0795 0 100 0
-0.0837655 0.0631195 0.0795 0 100 0
-0.0506372 -0.0122956 0.0795 0 100 0
-0.0881475 0.0900535 0.0795 0 100 0
-0.0804114 0.0768725 0.0795 0 100 0
-0.0474565 0.10715 0.0795 0 100 0
-0.0449665 0.0825234 0.0795 0 100 0
-0.0811277 0.123388 0.0795 0 100 0
-0.0545732 -0.0129052 0.0795 0 100 0
-0.0772065 0.0886486 0.0795 0 100 0
-0.0887776 -0.0442889 0.0795 0 100 0
-0.0631139 0.0437593 0.0795 0 100 0
-0.0588221 0.0891568 0.0795 0 100 0
-0.0506242 0.0934111 0.0795 0 100 0
-0.0696178 0.0896625 0.0795 0 100 0
-0.0811201 -0.106052 0.0795 0 100 0
-0.0468472 0.0843136 0.0795 0 100 0
-0.0531057 -0.0318548 0.0795 0 100 0
-0.0582248 0.0800833 0.0795 0 100 0
-0.0811144 -0.0520778 0.0795 0 100 0
-0.0521621 0.0178024 0.0795 0 100 0
-0.0693496 -0.0790689 0.0795 0 100 0
-0.053076 0.0217732 0.0795 0 100 0
-0.04488 -0.122406 0.0795 0 100 0
-0.0578068 0.0537499 0.0795 0 100 0
-0.0690817 0.0746322 0.0795 0 100 0
-0.0595427 0.121654 0.0795 0 100 0
-0.0836314 -0.113696 0.0795 0 100 0
-0.0744092 -0.12279 0.0795 0 100 0
-0.0426636 -0.067027 0.0795 0 100 0
-0.0637919 -0.0602791 0.0795 0 100 0
-0.05144 0.107079 0.0795 0 100 0
-0.0573987 0.00562763 0.0795 0 100 0
-0.088993 -0.0376569 0.0795 0 100 0
-0.0481872 -0.109683 0.0795 0 100 0
-0.0859994 0.020329 0.0795 0 100 0
-0.0784345 -0.0783791 0.0795 0 100 0
-0.0458749 0.0903303 0.0795 0 100 0
-0.0592079 0.00892781 0.0795 0 100 0
-0.077564 -0.109949 0.0795 0 100 0
-0.0800576 0.0897555 0.0795 0 100 0
-0.0662704 -0.117762 0.0795 0 100 0
-0.0557033 -0.0913845 0.0795 0 100 0
-0.0432833 0.0377566 0.0795 0 100 0
-0.0846031 -0.00324627 0.0795 0 100 0
-0.0557085 0.112622 0.0795 0 100 0
-0.0515156 -0.0382952 0.0795 0 100 0
-0.0447381 -0.0977711 0.0795 0 100 0
-0.0486153 0.0496443 0.0795 0 100 0
-0.059166 -0.0269287 0.0795 0 100 0
-0.0730332 -0.0376137 0.0795 0 100 0
-0.0422563 -0.0757842 0.0795 0 100 0
-0.0705491 0.121524 0.0795 0 100 0
-0.0862355 0.0651014 0.0795 0 100 0
-0.0652824 -0.0676847 0.0795 0 100 0
-0.0763019 -0.0279631 0.0795 0 100 0
-0.0559588 0.0341485 0.0795 0 100 0
-0.0603039 -0.043303 0.0795 0 100 0
-0.0675832 0.0220457 0.0795 0 100 0
-0.0534044 0.0189283 0.0795 0 100 0
-0.0520667 -0.0566618 0.0795 0 100 0
-0.0512762 -0.0817611 0.0795 0 100 0
-0.0438165 0.00218713 0.0795 0 100 0
-0.0592243 0.1234 0.0795 0 100 0
-0.041941 0.104406 0.0795 0 100 0
-0.0637925 0.0989056 0.0795 0 100 0
-0.0707283 -0.0241703 0.0795 0 100 0
-0.048706 0.0706297 0.0795 0 100 0
-0.065064 0.12346 0.0795 0 100 0
-0.0695703 0.0616601 0.0795 0 100 0
-0.0512036 -0.0270703 0.0795 0 100 0
-0.0865278 0.0786943 0.0795 0 100 0
-0.0597993 -0.122977 0.0795 0 100 0
-0.0881158 0.0917173 0.0795 0 100 0
-0.0609514 -0.0536864 0.0795 0 100 0
-0.0405408 0.0878362 0.0795 0 100 0
-0.0566981 0.0666542 0.0795 0 100 0
-0.063868 -0.026865 0.0795 0 100 0
-0.0836095 -0.00408303 0.0795 0 100 0
-0.069556 0.0109106 0.0795 0 100 0
-0.0558123 0.0385108 0.0795 0 100 0
-0.0489561 -0.0494781 0.0795 0 100 0
-0.0690608 0.0706671 0.0795 0 100 0
-0.0502652 0.123909 0.0795 0 100 0
-0.0892471 -0.00336452 0.0795 0 100 0
-0.0439717 0.0681278 0.0795 0 100 0
-0.0541896 0.0161466 0.0795 0 100 0
-0.0544747 -0.046191 0.0795 0 100 0
-0.0847315 0.0185209 0.0795 0 100 0
-0.044568 -0.12035 0.0795 0 100 0
-0.044867 0.0386286 0.0795 0 100 0
-0.0448822 -0.0892945 0.0795 0 100 0
-0.0444229 -0.0856078 0.0795 0 100 0
-0.0627806 -0.0166266 0.0795 0 100 0
-0.0726498 -0.0682575 0.0795 0 100 0
-0.0810198 -0.0962881 0.0795 0 100 0
-0.0744592 -0.0625356 0.0795 0 100 0
-0.041209 -0.0546992 0.0795 0 100 0
-0.088256 -0.10092 0.0795 0 100 0
-0.070707 -0.123779 0.0795 0 100 0
-0.0588439 -0.0808683 0.0795 0 100 0
-0.0479702 0.0490367 0.0795 0 100 0
-0.0701601 0.0949198 0.0795 0 100 0
-0.0736075 -0.0459069 0.0795 0 100 0
-0.0738622 0.0244605 0.0795 0 100 0
-0.0730771 0.0141077 0.0795 0 100 0
-0.0750412 -0.0499563 0.0795 0 100 0
-0.0505328 -0.029891 0.0795 0 100 0
-0.0435717 -0.072054 0.0795 0 100 0
-0.0766563 0.0580319 0.0795 0 100 0
-0.0870033 0.0420856 0.0795 0 100 0
-0.079473 -0.0532314 0.0795 0 100 0
-0.0459293 0.0569845 0.0795 0 100 0
-0.0577724 -0.0487693 0.0795 0 100 0
-0.0851754 0.082776 0.0795 0 100 0
-0.0688476 -0.0262397 0.0795 0 100 0
-0.0854714 -0.0793682 0.0795 0 100 0
-0.061445 -0.0723315 0.0795 0 100 0
-0.0895 -0.040644 0.0451693 0 100 0
-0.0895 -0.120793 0.0487767 0 100 0
-0.0895 -0.0360046 0.0717699 0 100 0
-0.0895 -0.0131788 0.0723275 0 100 0
-0.0895 -0.0841358 0.0381117 0 100 0
-0.0895 -0.0507506 0.0526235 0 100 0
-0.0895 -0.0881292 0.0514019 0 100 0
-0.0895 -0.038071 0.0544481 0 100 0
-0.0895 -0.0585206 0.0382429 0 100 0
-0.0895 0.1131 0.0343956 0 100 0
-0.0895 -0.102033 0.0336575 0 100 0
-0.0895 -0.123247 0.0448827 0 100 0
-0.0895 0.0767461 0.0528411 0 100 0
-0.0895 -0.0237899 0.0428816 0 100 0
-0.0895 0.0504832 0.0593983 0 100 0
-0.0895 0.0176084 0.0318637 0 100 0
-0.0895 -0.109732 0.0454433 0 100 0
-0.0895 -0.0231324 0.0434869 0 100 0
-0.0895 -0.10151 0.037098 0 100 0
-0.0895 -0.0677765 0.0401002 0 100 0
-0.0895 -0.0562847 0.061386 0 100 0
-0.0895 -0.110215 0.0392207 0 100 0
-0.0895 -0.115511 0.0519355 0 100 0
-0.0895 0.11193 0.0423075 0 100 0
-0.0895 0.045973 0.0618421 0 100 0
-0.0895 0.0228527 0.0376994 0 100 0
-0.0895 -0.0992713 0.0468691 0 100 0
-0.0895 0.019033 0.0620197 0 100 0
-0.0895 -0.0368244 0.052403 0 100 0
-0.0895 0.041178 0.0578694 0 100 0
-0.0895 0.115874 0.0406286 0 100 0
-0.0895 -0.074489 0.0681512 0 100 0
-0.0895 0.00659785 0.0340823 0 100 0
-0.0895 -0.0230953 0.0350253 0 100 0
-0.0895 0.0769064 0.0383655 0 100 0
-0.0895 -0.0652959 0.0381998 0 100 0
-0.0895 0.00415076 0.070638 0 100 0
-0.0895 -0.0370145 0.0719685 0 100 0
-0.0895 0.107182 0.0646928 0 100 0
-0.0895 -0.0889229 0.0675235 0 100 0
-0.0895 -0.0197528 0.0588366 0 100 0
-0.0895 0.0482398 0.0561909 0 100 0
-0.0895 0.04493 0.0518728 0 100 0
-0.0895 0.121912 0.0624727 0 100 0
-0.0895 0.123454 0.0681805 0 100 0
-0.0895 -0.112413 0.0588073 0 100 0
-0.0895 0.0241776 0.07829 0 100 0
-0.0895 0.0789886 0.0509158 0 100 0
-0.0895 -0.0734915 0.07635 0 100 0
-0.0895 0.117631 0.0433097 0 100 0
-0.0895 0.00738449 0.0501806 0 100 0
-0.0895 -0.0437204 0.0308861 0 100 0
-0.0895 -0.0931505 0.0418983 0 100 0
-0.0895 0.065704 0.0471737 0 100 0
-0.0895 0.0617748 0.0790081 0 100 0
-0.0895 0.0708219 0.0473624 0 100 0
-0.0895 -0.123911 0.0436857 0 100 0
-0.0895 0.0638886 0.0319617 0 100 0
-0.0895 0.0333738 0.0557268 0 100 0
-0.0895 -0.027671 0.042914 0 100 0
-0.0895 0.11975 0.0357219 0 100 0
-0.0895 -0.0857347 0.0580149 0 100 0
-0.0895 0.045779 0.0723558 0 100 0
-0.0895 -0.0775946 0.0334002 0 100 0
-0.0895 -0.0316137 0.0596127 0 100 0
-0.0895 0.0264845 0.0334831 0 100 0
-0.0895 -0.0773522 0.0660297 0 100 0
-0.0895 -0.0996561 0.0628931 0 100 0
-0.0895 -0.0804613 0.0622812 0 100 0
-0.0895 -0.0235359 0.0536474 0 100 0
-0.0895 0.0647354 0.0457645 0 100 0
-0.0895 0.0263458 0.0718545 0 100 0
-0.0895 -0.116342 0.0493715 0 100 0
-0.0895 0.0716785 0.0481278 0 100 0
-0.0895 0.0198263 0.0410366 0 100 0
-0.0895 -0.0585598 0.0740923 0 100 0
-0.0895 -0.0316161 0.040546 0 100 0
-0.0895 -0.0171218 0.0693291 0 100 0
-0.0895 0.108403 0.0530173 0 100 0
-0.0895 -0.0150668 0.0455937 0 100 0
-0.0895 -0.00772022 0.0538002 0 100 0
-0.0895 -0.010797 0.0443534 0 100 0
-0.0895 -0.0754184 0.0735648 0 100 0
-0.0895 0.0181389 0.0514278 0 100 0
-0.0895 -0.0156067 0.0764232 0 100 0
-0.0895 -0.0557982 0.0421395 0 100 0
-0.0895 -0.0629674 0.0478795 0 100 0
-0.0895 0.0269628 0.0665552 0 100 0
-0.0895 -0.0369431 0.0396135 0 100 0
-0.0895 0.119389 0.0663998 0 100 0
-0.0895 0.0768483 0.068034 0 100 0
-0.0895 0.0736528 0.0723094 0 100 0
-0.0895 0.0714996 0.0710428 0 100 0
-0.0895 -0.029283 0.0739564 0 100 0
-0.0895 -0.0836492 0.0310552 0 100 0
-0.0895 0.105297 0.0580504 0 100 0
-0.0895 -0.104675 0.067843 0 100 0
-0.0895 -0.115017 0.0705986 0 100 0
-0.0895 0.082441 0.0393932 0 100 0
-0.0895 -0.0610501 0.0489003 0 100 0
-0.0895 -0.0661172 0.0601845 0 100 0
-0.0895 -0.0179212 0.0528229 0 100 0
-0.0895 -0.116516 0.0573979 0 100 0
-0.0895 -0.10661 0.0477263 0 100 0
-0.0895 0.121935 0.0663708 0 100 0
-0.0895 0.119362 0.0652403 0 100 0
-0.0895 0.0340691 0.0333263 0 100 0
-0.0895 -0.0375544 0.0330635 0 100 0
-0.0895 -0.0786874 0.0418078 0 100 0
-0.0895 -0.0235466 0.0348789 0 100 0
-0.0895 0.0599839 0.0316183 0 100 0
-0.0895 0.111266 0.0529305 0 100 0
-0.0895 -0.0166725 0.0750685 0 100 0
-0.0895 -0.0644398 0.0607862 0 100 0
-0.0895 -0.122185 0.0435818 0 100 0
-0.0895 -0.0582266 0.0434871 0 100 0
-0.0895 -0.00536523 0.071543 0 100 0
-0.0895 -0.112058 0.041844 0 100 0
-0.0895 0.0309889 0.0754233 0 100 0
-0.0895 -0.0551343 0.0567792 0 100 0
-0.0895 -0.0553006 0.0565971 0 100 0
-0.0895 0.0252159 0.0504655 0 100 0
-0.0405 0.0771592 0.0443312 0 100 0
-0.0405 -0.0782903 0.0543893 0 100 0
-0.0405 -0.0136519 0.0636845 0 100 0
-0.0405 0.072763 0.0481922 0 100 0
-0.0405 0.0519964 0.0471707 0 100 0
-0.0405 0.0990212 0.0471738 0 100 0
-0.0405 0.107147 0.0522803 0 100 0
-0.0405 0.0505884 0.0454533 0 100 0
-0.0405 -0.0265427 0.054131 0 100 0
-0.0405 0.0623337 0.0477319 0 100 0
-0.0405 0.111476 0.0658327 0 100 0
-0.0405 -0.0151453 0.0375877 0 100 0
-0.0405 0.0141715 0.0435522 0 100 0
-0.0405 0.0485042 0.0591903 0 100 0
-0.0405 0.0015925 0.0495581 0 100 0
-0.0405 0.0148779 0.0716634 0 100 0
-0.0405 0.118456 0.0745155 0 100 0
-0.0405 0.0232569 0.0703259 0 100 0
-0.0405 0.0376928 0.0572002 0 100 0
-0.0405 -0.024881 0.070268 0 100 0
-0.0405 -0.0351812 0.0521683 0 100 0
-0.0405 -0.0768472 0.0704794 0 100 0
-0.0405 0.0975075 0.076586 0 100 0
-0.0405 -0.11926 0.0789843 0 100 0
-0.0405 0.00412573 0.0671053 0 100 0
-0.0405 -0.0565928 0.0485135 0 100 0
-0.0405 -0.01649 0.0780292 0 100 0
-0.0405 -0.00276832 0.0708323 0 100 0
-0.0405 0.0295665 0.0759004 0 100 0
-0.0405 -0.106398 0.0760914 0 100 0
-0.0405 0.120047 0.0372187 0 100 0
-0.0405 -0.0325344 0.0571048 0 100 0
-0.0405 -0.0122506 0.0418247 0 100 0
-0.0405 -0.053937 0.0509205 0 100 0
-0.0405 -0.0228112 0.0454792 0 100 0
-0.0405 0.0109169 0.0428761 0 100 0
-0.0405 0.066201 0.0620392 0 100 0
-0.0405 0.060384 0.0457659 0 100 0
-0.0405 0.0172026 0.0581714 0 100 0
-0.0405 0.120225 0.0313122 0 100 0
-0.0405 -0.0597566 0.0506704 0 100 0
-0.0405 -0.048034 0.0543346 0 100 0
-0.0405 -0.116635 0.0537297 0 100 0
-0.0405 -0.0673561 0.0741167 0 100 0
-0.0405 0.089704 0.0492083 0 100 0
-0.0405 0.0536423 0.0551607 0 100 0
-0.0405 0.00912189 0.0517347 0 100 0
-0.0405 -0.105856 0.0424073 0 100 0
-0.0405 -0.0216884 0.0562013 0 100 0
-0.0405 0.0445368 0.0623177 0 100 0
-0.0405 0.0917998 0.0355905 0 100 0
-0.0405 0.0103201 0.0448298 0 100 0
-0.0405 -0.0903268 0.0714322 0 100 0
-0.0405 0.0527695 0.0508914 0 100 0
-0.0405 -0.0371991 0.0745287 0 100 0
-0.0405 -0.116067 0.0362539 0 100 0
-0.0405 0.0527819 0.0374828 0 100 0
-0.0405 -0.0469627 0.0615505 0 100 0
-0.0405 -0.103321 0.0429736 0 100 0
-0.0405 -0.033927 0.0359453 0 100 0
-0.0405 -0.0767988 0.061364 0 100 0
-0.0405 -0.0434991 0.0579584 0 100 0
-0.0405 0.0920865 0.0587006 0 100 0
-0.0405 0.0131429 0.0598527 0 100 0
-0.0405 -0.0269269 0.0444181 0 100 0
-0.0405 0.117373 0.0659848 0 100 0
-0.0405 -0.0661721 0.0634681 0 100 0
-0.0405 0.0882348 0.0435125 0 100 0
-0.0405 0.0924226 0.0423143 0 100 0
-0.0405 -0.100426 0.0700678 0 100 0
-0.0405 -0.120359 0.0501722 0 100 0
-0.0405 -0.0969083 0.0479688 0 100 0
-0.0405 0.0266952 0.0390044 0 100 0
-0.0405 0.0146408 0.0377577 0 100 0
-0.0405 -0.0699875 0.0635273 0 100 0
-0.0405 0.116019 0.0389418 0 100 0
-0.0405 0.0968289 0.0707794 0 100 0
-0.0405 0.05215 0.0385379 0 100 0
-0.0405 0.0801698 0.0658706 0 100 0
-0.0405 0.026396 0.0539407 0 100 0
-0.0405 -0.0107047 0.0637586 0 100 0
-0.0405 -0.103169 0.0601523 0 100 0
-0.0405 -0.109681 0.0603308 0 100 0
-0.0405 -0.0264264 0.0392369 0 100 0
-0.0405 -0.050501 0.0560067 0 100 0
-0.0405 -0.0935983 0.0542264 0 100 0
-0.0405 -0.0822003 0.0419936 0 100 0
-0.0405 -0.00708802 0.0567324 0 100 0
-0.0405 0.0384796 0.0478626 0 100 0
-0.0405 0.0122739 0.0740665 0 100 0
-0.0405 0.0594917 0.0437951 0 100 0
-0.0405 0.105495 0.0368519 0 100 0
-0.0405 -0.0144508 0.0777741 0 100 0
-0.0405 -0.112866 0.0363853 0 100 0
-0.0405 0.0423933 0.0779617 0 100 0
-0.0405 -0.0670504 0.0562925 0 100 0
-0.0405 0.123587 0.0353341 0 100 0
-0.0405 0.0440601 0.034192 0 100 0
-0.0405 -0.0869296 0.0598816 0 100 0
-0.0405 -0.0917482 0.0670192 0 100 0
-0.0405 0.0486673 0.079105 0 100 0
-0.0405 0.046948 0.0674527 0 100 0
-0.0405 -0.0227722 0.0515279 0 100 0
-0.0405 -0.0338932 0.0674795 0 100 0
-0.0405 -0.080968 0.0751126 0 100 0
-0.0405 0.108374 0.0323117 0 100 0
-0.0405 -0.0651697 0.0745011 0 100 0
-0.0405 0.0216039 0.0648398 0 100 0
-0.0405 -0.0885644 0.0783968 0 100 0
-0.0405 0.0259699 0.0372263 0 100 0
-0.0405 -0.103593 0.074216 0 100 0
-0.0405 0.0945705 0.0430284 0 100 0
-0.0405 -0.0992645 0.0335843 0 100 0
-0.0405 0.0855157 0.036585 0 100 0
-0.0405 -0.0856474 0.0651289 0 100 0
-0.0405 -0.0801424 0.0520284 0 100 0
-0.0405 -0.122704 0.0628518 0 100 0
-0.0405 0.0324335 0.0352855 0 100 0
-0.0405 0.0588808 0.0445719 0 100 0
-0.0405 0.11889 0.047762 0 100 0
-0.0405 -0.0998891 0.0775993 0 100 0
-0.0405 -0.0435251 0.041897 0 100 0
-0.0454741 0.1245 0.0704792 0 100 0
-0.0509803 0.1245 0.0433212 0 100 0
-0.0449315 0.1245 0.0434103 0 100 0
-0.0856962 0.1245 0.0742884 0 100 0
-0.0884725 0.1245 0.0524114 0 100 0
-0.0680425 0.1245 0.0730168 0 100 0
-0.0566216 0.1245 0.0739612 0 100 0
-0.0725632 0.1245 0.0500335 0 100 0
-0.0414879 0.1245 0.0565237 0 100 0
-0.0654281 0.1245 0.0527673 0 100 0
-0.0738921 0.1245 0.0762441 0 100 0
-0.0510226 0.1245 0.0418567 0 100 0
-0.0575208 0.1245 0.0605151 0 100 0
-0.0745228 0.1245 0.0531266 0 100 0
-0.0594237 0.1245 0.0492144 0 100 0
-0.0752844 0.1245 0.0727005 0 100 0
-0.0881026 0.1245 0.0631327 0 100 0
-0.0817766 0.1245 0.0482826 0 100 0
-0.0514321 0.1245 0.0778088 0 100 0
-0.087657 0.1245 0.032824 0 100 0
-0.0405097 0.1245 0.0474863 0 100 0
-0.0741296 0.1245 0.0434589 0 100 0
-0.0528439 0.1245 0.0397944 0 100 0
-0.0470742 0.1245 0.0500382 0 100 0
-0.0466168 -0.1245 0.0493657 0 100 0
-0.0464511 -0.1245 0.0630037 0 100 0
-0.0617586 -0.1245 0.0746681 0 100 0
-0.0453422 -0.1245 0.048052 0 100 0
-0.0555553 -0.1245 0.0463652 0 100 0
-0.0536574 -0.1245 0.0746995 0 100 0
-0.0820251 -0.1245 0.0782602 0 100 0
-0.0847458 -0.1245 0.0508623 0 100 0
-0.0532509 -0.1245 0.0715821 0 100 0
-0.0613411 -0.1245 0.0722842 0 100 0
-0.0834819 -0.1245 0.0503044 0 100 0
-0.0808117 -0.1245 0.0360147 0 100 0
-0.0424345 -0.1245 0.0608091 0 100 0
-0.052535 -0.1245 0.0657668 0 100 0
-0.0767455 -0.1245 0.0706751 0 100 0
-0.0488847 -0.1245 0.0494787 0 100 0
-0.0856449 -0.1245 0.065635 0 100 0
-0.0856775 -0.1245 0.0437141 0 100 0
-0.0843878 -0.1245 0.0414373 0 100 0
-0.0503922 -0.1245 0.0478498 0 100 0
-0.0546392 -0.1245 0.0576239 0 100 0
-0.0823502 -0.1245 0.0779146 0 100 0
-0.0608584 -0.1245 0.0793268 0 100 0
-0.0530793 -0.1245 0.0332073 0 100 0
-0.229414 -0.122947 0.0305 0 100 0
-0.342887 -0.122169 0.0305 0 100 0
-0.353871 -0.100278 0.0305 0 100 0
-0.350742 -0.103415 0.0305 0 100 0
-0.33189 -0.123946 0.0305 0 100 0
-0.381279 -0.0968425 0.0305 0 100 0
-0.258731 -0.122785 0.0305 0 100 0
-0.071772 -0.0868948 0.0305 0 100 0
-0.0700144 -0.0843563 0.0305 0 100 0
-0.141443 -0.0866768 0.0305 0 100 0
-0.0881554 -0.0842641 0.0305 0 100 0
-0.172765 -0.0908236 0.0305 0 100 0
-0.381622 -0.110654 0.0305 0 100 0
-0.289645 -0.109935 0.0305 0 100 0
-0.168195 -0.113008 0.0305 0 100 0
-0.38966 -0.114669 0.0305 0 100 0
-0.0750711 -0.0880283 0.0305 0 100 0
-0.34096 -0.0860116 0.0305 0 100 0
-0.158694 -0.123952 0.0305 0 100 0
-0.39613 -0.115081 0.0305 0 100 0
-0.0877139 -0.0801032 0.0305 0 100 0
-0.191189 -0.0839233 0.0305 0 100 0
-0.322518 -0.122707 0.0305 0 100 0
-0.340143 -0.0761837 0.0305 0 100 0
-0.38326 -0.0975986 0.0305 0 100 0
-0.0984555 -0.100553 0.0305 0 100 0
-0.0701953 -0.120552 0.0305 0 100 0
-0.34564 -0.111983 0.0305 0 100 0
-0.313145 -0.100955 0.0305 0 100 0
-0.288573 -0.12364 0.0305 0 100 0
-0.393234 -0.121187 0.0305 0 100 0
-0.13228 -0.107172 0.0305 0 100 0
-0.104714 -0.106229 0.0305 0 100 0
-0.287483 -0.106062 0.0305 0 100 0
-0.374861 -0.0810884 0.0305 0 100 0
-0.135382 -0.0856698 0.0305 0 100 0
-0.248896 -0.105579 0.0305 0 100 0
-0.103723 -0.110213 0.0305 0 100 0
-0.143085 -0.0842539 0.0305 0 100 0
-0.217245 -0.0891596 0.0305 0 100 0
-0.413226 -0.123615 0.0305 0 100 0
-0.328199 -0.121913 0.0305 0 100 0
-0.255503 -0.0869817 0.0305 0 100 0
-0.386336 -0.0925702 0.0305 0 100 0
-0.0994994 -0.119752 0.0305 0 100 0
-0.309996 -0.0939653 0.0305 0 100 0
-0.278904 -0.0890249 0.0305 0 100 0
-0.40602 -0.114663 0.0305 0 100 0
-0.354196 -0.113325 0.0305 0 100 0
-0.0839324 -0.106271 0.0305 0 100 0
-0.0722788 -0.11325 0.0305 0 100 0
-0.163048 -0.0894488 0.0305 0 100 0
-0.329178 -0.112492 0.0305 0 100 0
-0.381498 -0.116027 0.0305 0 100 0
-0.136653 -0.117559 0.0305 0 100 0
-0.105154 -0.0930433 0.0305 0 100 0
-0.225306 -0.0855009 0.0305 0 100 0
-0.269491 -0.0852533 0.0305 0 100 0
-0.2866 -0.085466 0.0305 0 100 0
-0.327268 -0.0756527 0.0305 0 100 0
-0.107918 -0.116348 0.0305 0 100 0
-0.281991 -0.112878 0.0305 0 100 0
-0.200717 -0.097357 0.0305 0 100 0
-0.245943 -0.101166 0.0305 0 100 0
-0.295746 -0.117497 0.0305 0 100 0
-0.389111 -0.11664 0.0305 0 100 0
-0.327406 -0.112709 0.0305 0 100 0
-0.385835 -0.0845953 0.0305 0 100 0
-0.281769 -0.109467 0.0305 0 100 0
-0.365202 -0.113023 0.0305 0 100 0
-0.230826 -0.105227 0.0305 0 100 0
-0.33231 -0.0778025 0.0305 0 100 0
-0.157006 -0.104304 0.0305 0 100 0
-0.367635 -0.0942111 0.0305 0 100 0
-0.198435 -0.111551 0.0305 0 100 0
-0.0979282 -0.10843 0.0305 0 100 0
-0.334906 -0.0945242 0.0305 0 100 0
-0.275515 -0.115251 0.0305 0 100 0
-0.347428 -0.0792601 0.0305 0 100 0
-0.134328 -0.105985 0.0305 0 100 0
-0.189335 -0.0811201 0.0305 0 100 0
-0.0730743 -0.106309 0.0305 0 100 0
-0.314269 -0.115335 0.0305 0 100 0
-0.0860373 -0.0973357 0.0305 0 100 0
-0.278321 -0.0879437 0.0305 0 100 0
-0.283348 -0.10286 0.0305 0 100 0
-0.0694621 -0.0921568 0.0305 0 100 0
-0.143017 -0.100141 0.0305 0 100 0
-0.0702058 -0.102655 0.0305 0 100 0
-0.367864 -0.0858149 0.0305 0 100 0
-0.228238 -0.10073 0.0305 0 100 0
-0.144105 -0.100254 0.0305 0 100 0
-0.183741 -0.107307 0.0305 0 100 0
-0.280442 -0.0788173 0.0305 0 100 0
-0.184154 -0.124355 0.0305 0 100 0
-0.171225 -0.0890029 0.0305 0 100 0
-0.331653 -0.119747 0.0305 0 100 0
-0.382527 -0.0898424 0.0305 0 100 0
-0.232103 -0.106334 0.0305 0 100 0
-0.150525 -0.0825859 0.0305 0 100 0
-0.18117 -0.0984864 0.0305 0 100 0
-0.0917908 -0.114394 0.0305 0 100 0
-0.231394 -0.0989928 0.0305 0 100 0
-0.297957 -0.114056 0.0305 0 100 0
-0.297402 -0.079453 0.0305 0 100 0
-0.0669288 -0.100955 0.0305 0 100 0
-0.0998966 -0.0850363 0.0305 0 100 0
-0.111914 -0.1228 0.0305 0 100 0
-0.112907 -0.123171 0.0305 0 100 0
-0.0959649 -0.0919656 0.0305 0 100 0
-0.2616 -0.0959628 0.0305 0 100 0
-0.347655 -0.0995488 0.0305 0 100 0
-0.409067 -0.0860955 0.0305 0 100 0
-0.143187 -0.0871348 0.0305 0 100 0
-0.216936 -0.0832851 0.0305 0 100 0
-0.130582 -0.0880489 0.0305 0 100 0
-0.39456 -0.0961972 0.0305 0 100 0
-0.327351 -0.12261 0.0305 0 100 0
-0.238479 -0.102832 0.0305 0 100 0
-0.378986 -0.0988896 0.0305 0 100 0
-0.132516 -0.0961 0.0305 0 100 0
-0.0882416 -0.0834741 0.0305 0 100 0
-0.243166 -0.0850263 0.0305 0 100 0
-0.370752 -0.0951126 0.0305 0 100 0
-0.388286 -0.0755622 0.0305 0 100 0
-0.102475 -0.0811025 0.0305 0 100 0
-0.199769 -0.110253 0.0305 0 100 0
-0.34056 -0.0863018 0.0305 0 100 0
-0.222989 -0.0862796 0.0305 0 100 0
-0.137041 -0.110576 0.0305 0 100 0
-0.175878 -0.0870912 0.0305 0 100 0
-0.113278 -0.11016 0.0305 0 100 0
-0.360021 -0.107732 0.0305 0 100 0
-0.19974 -0.0936578 0.0305 0 100 0
-0.12762 -0.0842229 0.0305 0 100 0
-0.268279 -0.0877668 0.0305 0 100 0
-0.146317 -0.0982847 0.0305 0 100 0
-0.311676 -0.0855564 0.0305 0 100 0
-0.227732 -0.099248 0.0305 0 100 0
-0.368568 -0.0905535 0.0305 0 100 0
-0.0792564 -0.11088 0.0305 0 100 0
-0.17987 -0.0755902 0.0305 0 100 0
-0.126038 -0.120779 0.0305 0 100 0
-0.266259 -0.0867107 0.0305 0 100 0
-0.404509 -0.0852973 0.0305 0 100 0
-0.356071 -0.109204 0.0305 0 100 0
-0.283 -0.0845908 0.0305 0 100 0
-0.232512 -0.0797039 0.0305 0 100 0
-0.0951363 -0.0852056 0.0305 0 100 0
-0.186382 -0.101005 0.0305 0 100 0
-0.331852 -0.100386 0.0305 0 100 0
-0.0748664 -0.0897244 0.0305 0 100 0
-0.0829207 -0.100133 0.0305 0 100 0
-0.21042 -0.100875 0.0305 0 100 0
-0.375436 -0.090734 0.0305 0 100 0
-0.0904099 -0.104961 0.0305 0 100 0
-0.406045 -0.0815366 0.0305 0 100 0
-0.084665 -0.0959869 0.0305 0 100 0
-0.0777497 -0.0828843 0.0305 0 100 0
-0.260997 -0.0775157 0.0305 0 100 0
-0.0788304 -0.0839786 0.0305 0 100 0
-0.200288 -0.122392 0.0305 0 100 0
-0.211018 -0.0861485 0.0305 0 100 0
-0.228915 -0.0957567 0.0305 0 100 0
-0.137916 -0.117569 0.0305 0 100 0
-0.232747 -0.120187 0.0305 0 100 0
-0.168444 -0.0915837 0.0305 0 100 0
-0.308101 -0.107988 0.0305 0 100 0
-0.350155 -0.0806832 0.0305 0 100 0
-0.206062 -0.0846786 0.0305 0 100 0
-0.354234 -0.0765322 0.0305 0 100 0
-0.0950463 -0.0852606 0.0795 0 100 0
-0.141032 -0.0847174 0.0795 0 100 0
-0.135157 -0.121643 0.0795 0 100 0
-0.241692 -0.0988791 0.0795 0 100 0
-0.196819 -0.0937709 0.0795 0 100 0
-0.388433 -0.07755 0.0795 0 100 0
-0.121747 -0.0971643 0.0795 0 100 0
-0.265437 -0.108138 0.0795 0 100 0
-0.237998 -0.0913666 0.0795 0 100 0
-0.0875834 -0.116672 0.0795 0 100 0
-0.136103 -0.0803165 0.0795 0 100 0
-0.181155 -0.11824 0.0795 0 100 0
-0.15374 -0.0973931 0.0795 0 100 0
-0.0843962 -0.105227 0.0795 0 100 0
-0.172425 -0.106429 0.0795 0 100 0
-0.35964 -0.0878427 0.0795 0 100 0
-0.138579 -0.11794 0.0795 0 100 0
-0.373663 -0.0884639 0.0795 0 100 0
-0.398997 -0.0841125 0.0795 0 100 0
-0.154002 -0.0762108 0.0795 0 100 0
-0.0770902 -0.097728 0.0795 0 100 0
-0.234861 -0.0967218 0.0795 0 100 0
-0.290706 -0.118446 0.0795 0 100 0
-0.16687 -0.0933596 0.0795 0 100 0
-0.261633 -0.0997888 0.0795 0 100 0
-0.325849 -0.11688 0.0795 0 100 0
-0.242574 -0.10037 0.0795 0 100 0
-0.16993 -0.0895541 0.0795 0 100 0
-0.395576 -0.109212 0.0795 0 100 0
-0.156016 -0.106663 0.0795 0 100 0
-0.0689226 -0.0765752 0.0795 0 100 0
-0.350137 -0.0780602 0.0795 0 100 0
-0.121693 -0.108357 0.0795 0 100 0
-0.316778 -0.0817604 0.0795 0 100 0
-0.198854 -0.0955294 0.0795 0 100 0
-0.171864 -0.10084 0.0795 0 100 0
-0.242944 -0.0800913 0.0795 0 100 0
-0.340691 -0.115756 0.0795 0 100 0
-0.370174 -0.109233 0.0795 0 100 0
-0.157753 -0.0812885 0.0795 0 100 0
-0.38761 -0.115976 0.0795 0 100 0
-0.121046 -0.104921 0.0795 0 100 0
-0.356261 -0.0950319 0.0795 0 100 0
-0.227161 -0.10254 0.0795 0 100 0
-0.402016 -0.119976 0.0795 0 100 0
-0.30333 -0.100394 0.0795 0 100 0
-0.316497 -0.104815 0.0795 0 100 0
-0.109249 -0.115978 0.0795 0 100 0
-0.294943 -0.096892 0.0795 0 100 0
-0.299591 -0.0888849 0.0795 0 100 0
-0.337772 -0.115262 0.0795 0 100 0
-0.397781 -0.0894601 0.0795 0 100 0
-0.290172 -0.108502 0.0795 0 100 0
-0.256521 -0.084249 0.0795 0 100 0
-0.246064 -0.123429 0.0795 0 100 0
-0.352226 -0.0908712 0.0795 0 100 0
-0.244239 -0.0957736 0.0795 0 100 0
-0.271633 -0.123989 0.0795 0 100 0
-0.149115 -0.108833 0.0795 0 100 0
-0.412452 -0.118962 0.0795 0 100 0
-0.0927597 -0.0811452 0.0795 0 100 0
-0.144479 -0.0847397 0.0795 0 100 0
-0.182309 -0.0775496 0.0795 0 100 0
-0.130657 -0.112359 0.0795 0 100 0
-0.384846 -0.109167 0.0795 0 100 0
-0.321607 -0.0917998 0.0795 0 100 0
-0.281805 -0.0777017 0.0795 0 100 0
-0.363634 -0.119674 0.0795 0 100 0
-0.151325 -0.103529 0.0795 0 100 0
-0.230159 -0.107281 0.0795 0 100 0
-0.166093 -0.0783471 0.0795 0 100 0
-0.322124 -0.10169 0.0795 0 100 0
-0.406367 -0.0801006 0.0795 0 100 0
-0.379666 -0.10195 0.0795 0 100 0
-0.334578 -0.108234 0.0795 0 100 0
-0.245387 -0.0857216 0.0795 0 100 0
-0.29108 -0.119762 0.0795 0 100 0
-0.350263 -0.117823 0.0795 0 100 0
-0.103656 -0.112774 0.0795 0 100 0
-0.168031 -0.0817714 0.0795 0 100 0
-0.133274 -0.11041 0.0795 0 100 0
-0.252383 -0.0993673 0.0795 0 100 0
-0.181895 -0.104276 0.0795 0 100 0
-0.244208 -0.103797 0.0795 0 100 0
-0.107278 -0.0955569 0.0795 0 100 0
-0.259694 -0.0756343 0.0795 0 100 0
-0.349199 -0.115029 0.0795 0 100 0
-0.304513 -0.113817 0.0795 0 100 0
-0.0891922 -0.0774169 0.0795 0 100 0
-0.175589 -0.106901 0.0795 0 100 0
-0.339837 -0.0835632 0.0795 0 100 0
-0.369541 -0.0978008 0.0795 0 100 0
-0.393093 -0.110382 0.0795 0 100 0
-0.23346 -0.0950833 0.0795 0 100 0
-0.175625 -0.0957054 0.0795 0 100 0
-0.201691 -0.122037 0.0795 0 100 0
-0.258324 -0.0761743 0.0795 0 100 0
-0.330125 -0.0897345 0.0795 0 100 0
-0.300242 -0.0878988 0.0795 0 100 0
-0.136405 -0.0825625 0.0795 0 100 0
-0.0705935 -0.116006 0.0795 0 100 0
-0.39943 -0.0831845 0.0795 0 100 0
-0.313791 -0.0996902 0.0795 0 100 0
-0.372499 -0.102109 0.0795 0 100 0
-0.268178 -0.0832185 0.0795 0 100 0
-0.0908755 -0.0903337 0.0795 0 100 0
-0.354022 -0.114384 0.0795 0 100 0
-0.200309 -0.0999033 0.0795 0 100 0
-0.329872 -0.11918 0.0795 0 100 0
-0.398897 -0.111834 0.0795 0 100 0
-0.322886 -0.101025 0.0795 0 100 0
-0.327586 -0.100963 0.0795 0 100 0
-0.360055 -0.0944845 0.0795 0 100 0
-0.101016 -0.114112 0.0795 0 100 0
-0.177213 -0.107127 0.0795 0 100 0
-0.387382 -0.109341 0.0795 0 100 0
-0.409298 -0.123628 0.0795 0 100 0
-0.197179 -0.101811 0.0795 0 100 0
-0.240617 -0.0868926 0.0795 0 100 0
-0.0975731 -0.112065 0.0795 0 100 0
-0.164937 -0.0849925 0.0795 0 100 0
-0.26766 -0.0788381 0.0795 0 100 0
-0.128196 -0.0959104 0.0795 0 100 0
-0.0739234 -0.0932724 0.0795 0 100 0
-0.183179 -0.0839285 0.0795 0 100 0
-0.10038 -0.0799163 0.0795 0 100 0
-0.261205 -0.10711 0.0795 0 100 0
-0.116382 -0.103225 0.0795 0 100 0
-0.299048 -0.112731 0.0795 0 100 0
-0.222446 -0.124128 0.0795 0 100 0
-0.0704488 -0.100163 0.0795 0 100 0
-0.346937 -0.0822549 0.0795 0 100 0
-0.177695 -0.0987905 0.0795 0 100 0
-0.124108 -0.112131 0.0795 0 100 0
-0.388864 -0.10757 0.0795 0 100 0
-0.330378 -0.091858 0.0795 0 100 0
-0.119114 -0.0877451 0.0795 0 100 0
-0.347305 -0.0809184 0.0795 0 100 0
-0.360978 -0.0919658 0.0795 0 100 0
-0.305719 -0.0996665 0.0795 0 100 0
-0.21669 -0.084508 0.0795 0 100 0
-0.269777 -0.101037 0.0795 0 100 0
-0.360388 -0.0840822 0.0795 0 100 0
-0.0975694 -0.0980964 0.0795 0 100 0
-0.240692 -0.0897982 0.0795 0 100 0
-0.253057 -0.0997345 0.0795 0 100 0
-0.274295 -0.0802445 0.0795 0 100 0
-0.291116 -0.0790662 0.0795 0 100 0
-0.18131 -0.106174 0.0795 0 100 0
-0.128667 -0.0782967 0.0795 0 100 0
-0.0747798 -0.106 0.0795 0 100 0
-0.316207 -0.113836 0.0795 0 100 0
-0.109965 -0.110893 0.0795 0 100 0
-0.135683 -0.112622 0.0795 0 100 0
-0.102055 -0.0855942 0.0795 0 100 0
-0.0742856 -0.119743 0.0795 0 100 0
-0.200498 -0.0783151 0.0795 0 100 0
-0.385554 -0.107528 0.0795 0 100 0
-0.182635 -0.0827948 0.0795 0 100 0
-0.206763 -0.0937994 0.0795 0 100 0
-0.0702988 -0.102638 0.0795 0 100 0
-0.0754865 -0.123251 0.0795 0 100 0
-0.176168 -0.107903 0.0795 0 100 0
-0.144166 -0.107041 0.0795 0 100 0
-0.178288 -0.0909379 0.0795 0 100 0
-0.146618 -0.109077 0.0795 0 100 0
-0.27079 -0.113883 0.0795 0 100 0
-0.202052 -0.108608 0.0795 0 100 0
-0.0695522 -0.120736 0.0795 0 100 0
-0.380121 -0.100288 0.0795 0 100 0
-0.337716 -0.105516 0.0795 0 100 0
-0.4145 -0.105771 0.0589485 0 100 0
-0.4145 -0.0906033 0.074813 0 100 0
-0.4145 -0.0765584 0.0578771 0 100 0
-0.4145 -0.0931915 0.0601361 0 100 0
-0.4145 -0.0891185 0.0574028 0 100 0
-0.4145 -0.119733 0.0587113 0 100 0
-0.4145 -0.0938401 0.0696145 0 100 0
-0.4145 -0.107603 0.0328633 0 100 0
-0.4145 -0.111255 0.0679972 0 100 0
-0.4145 -0.0806276 0.0737418 0 100 0
-0.4145 -0.0780606 0.0759708 0 100 0
-0.4145 -0.102148 0.0669011 0 100 0
-0.4145 -0.104284 0.0585984 0 100 0
-0.4145 -0.118665 0.0697862 0 100 0
-0.4145 -0.0834802 0.0339632 0 100 0
-0.4145 -0.121416 0.0327036 0 100 0
-0.4145 -0.101385 0.0634852 0 100 0
-0.4145 -0.115103 0.0788998 0 100 0
-0.4145 -0.114107 0.0412471 0 100 0
-0.4145 -0.10915 0.0419823 0 100 0
-0.4145 -0.116457 0.0669284 0 100 0
-0.4145 -0.110256 0.0417788 0 100 0
-0.4145 -0.0803379 0.0467197 0 100 0
-0.4145 -0.111565 0.068574 0 100 0
-0.0655 -0.0839092 0.0778609 0 100 0
-0.0655 -0.096453 0.0405243 0 100 0
-0.0655 -0.108415 0.0497289 0 100 0
-0.0655 -0.106999 0.0308052 0 100 0
-0.0655 -0.121994 0.0537455 0 100 0
-0.0655 -0.0982213 0.078398 0 100 0
-0.0655 -0.107592 0.041332 0 100 0
-0.0655 -0.101596 0.0454266 0 100 0
-0.0655 -0.122803 0.0442581 0 100 0
-0.0655 -0.0767041 0.0478147 0 100 0
-0.0655 -0.105218 0.0336088 0 100 0
-0.0655 -0.0878876 0.0528918 0 100 0
-0.0655 -0.106667 0.0485193 0 100 0
-0.0655 -0.122873 0.04123 0 100 0
-0.0655 -0.0933838 0.0589203 0 100 0
-0.0655 -0.101532 0.0455651 0 100 0
-0.0655 -0.0761196 0.0426044 0 100 0
-0.0655 -0.0847081 0.0695654 0 100 0
-0.0655 -0.114283 0.0354957 0 100 0
-0.0655 -0.122671 0.0427939 0 100 0
-0.0655 -0.110627 0.031496 0 100 0
-0.0655 -0.111333 0.0785737 0 100 0
-0.0655 -0.0906024 0.034551 0 100 0
-0.0655 -0.0948404 0.0739354 0 100 0
-0.351621 -0.0755 0.0313391 0 100 0
-0.155912 -0.0755 0.0549738 0 100 0
-0.326132 -0.0755 0.0467519 0 100 0
-0.28388 -0.0755 0.078486 0 100 0
-0.381301 -0.0755 0.038138 0 100 0
-0.0986843 -0.0755 0.0728814 0 100 0
-0.221573 -0.0755 0.0466912 0 100 0
-0.109599 -0.0755 0.0771765 0 100 0
-0.0868273 -0.0755 0.0747577 0 100 0
-0.197844 -0.0755 0.0590896 0 100 0
-0.332784 -0.0755 0.0476936 0 100 0
-0.3576 -0.0755 0.0394386 0 100 0
-0.299995 -0.0755 0.0764918 0 100 0
-0.337394 -0.0755 0.0439953 0 100 0
-0.201782 -0.0755 0.074447 0 100 0
-0.357145 -0.0755 0.0525885 0 100 0
-0.319883 -0.0755 0.0471815 0 100 0
-0.410107 -0.0755 0.078697 0 100 0
-0.361009 -0.0755 0.0636234 0 100 0
-0.0911845 -0.0755 0.0341031 0 100 0
-0.0956908 -0.0755 0.0712898 0 100 0
-0.364014 -0.0755 0.0570774 0 100 0
-0.28795 -0.0755 0.0522481 0 100 0
-0.365104 -0.0755 0.0338794 0 100 0
-0.339188 -0.0755 0.0691734 0 100 0
-0.0979827 -0.0755 0.0670793 0 100 0
-0.364143 -0.0755 0.0515653 0 100 0
-0.103445 -0.0755 0.0412888 0 100 0
-0.208877 -0.0755 0.073216 0 100 0
-0.314069 -0.0755 0.0711919 0 100 0
-0.400491 -0.0755 0.0419927 0 100 0
-0.228826 -0.0755 0.0468048 0 100 0
-0.276197 -0.0755 0.057176 0 100 0
-0.279868 -0.0755 0.0593104 0 100 0
-0.0792703 -0.0755 0.032954 0 100 0
-0.359713 -0.0755 0.054046 0 100 0
-0.170329 -0.0755 0.041057 0 100 0
-0.110095 -0.0755 0.0781464 0 100 0
-0.333171 -0.0755 0.0721139 0 100 0
-0.252304 -0.0755 0.0575987 0 100 0
-0.17421 -0.0755 0.0617927 0 100 0
-0.365364 -0.0755 0.049632 0 100 0
-0.131504 -0.0755 0.0594453 0 100 0
-0.378031 -0.0755 0.0411302 0 100 0
-0.297772 -0.0755 0.0457842 0 100 0
-0.257968 -0.0755 0.0766307 0 100 0
-0.165555 -0.0755 0.0517317 0 100 0
-0.264214 -0.0755 0.0625677 0 100 0
-0.235905 -0.0755 0.0630103 0 100 0
-0.231225 -0.0755 0.0708345 0 100 0
-0.236738 -0.0755 0.0697923 0 100 0
-0.163754 -0.0755 0.0490004 0 100 0
-0.30107 -0.0755 0.0628206 0 100 0
-0.120862 -0.0755 0.0388006 0 100 0
-0.0698046 -0.0755 0.039369 0 100 0
-0.0862619 -0.0755 0.0617991 0 100 0
-0.32281 -0.0755 0.0618097 0 100 0
-0.163291 -0.0755 0.0661341 0 100 0
-0.31957 -0.0755 0.0370779 0 100 0
-0.0662619 -0.0755 0.0653889 0 100 0
-0.335276 -0.0755 0.040123 0 100 0
-0.344591 -0.0755 0.0705531 0 100 0
-0.118199 -0.0755 0.0533628 0 100 0
-0.250495 -0.0755 0.072404 0 100 0
-0.376123 -0.0755 0.056855 0 100 0
-0.402173 -0.0755 0.0665675 0 100 0
-0.096368 -0.0755 0.0775873 0 100 0
-0.386384 -0.0755 0.0417535 0 100 0
-0.14216 -0.0755 0.0430148 0 100 0
-0.396773 -0.0755 0.0697596 0 100 0
-0.231222 -0.0755 0.0719547 0 100 0
-0.0962104 -0.0755 0.0583654 0 100 0
-0.237784 -0.0755 0.0617272 0 100 0
-0.309855 -0.0755 0.0683734 0 100 0
-0.169887 -0.0755 0.0643901 0 100 0
-0.404281 -0.0755 0.037197 0 100 0
-0.350638 -0.0755 0.0353613 0 100 0
-0.256922 -0.0755 0.0524927 0 100 0
-0.216793 -0.0755 0.0434522 0 100 0
-0.333789 -0.0755 0.0310651 0 100 0
-0.329209 -0.0755 0.0703853 0 100 0
-0.388322 -0.0755 0.0744568 0 100 0
-0.329288 -0.0755 0.0661751 0 100 0
-0.164347 -0.0755 0.0677593 0 100 0
-0.295136 -0.0755 0.0557191 0 100 0
-0.206629 -0.0755 0.0736355 0 100 0
-0.113142 -0.0755 0.0614772 0 100 0
-0.24353 -0.0755 0.0521396 0 100 0
-0.335293 -0.0755 0.0613738 0 100 0
-0.0888008 -0.0755 0.0497255 0 100 0
-0.345905 -0.0755 0.0534471 0 100 0
-0.285774 -0.0755 0.0318767 0 100 0
-0.306 -0.0755 0.0321005 0 100 0
-0.224382 -0.0755 0.0316786 0 100 0
-0.094958 -0.0755 0.0444975 0 100 0
-0.397715 -0.0755 0.0543423 0 100 0
-0.270331 -0.0755 0.0470756 0 100 0
-0.375133 -0.0755 0.0531089 0 100 0
-0.278396 -0.0755 0.0686025 0 100 0
-0.270504 -0.0755 0.0402466 0 100 0
-0.198152 -0.0755 0.0705591 0 100 0
-0.316287 -0.0755 0.0583252 0 100 0
-0.164407 -0.0755 0.064794 0 100 0
-0.323476 -0.0755 0.0391618 0 100 0
-0.119321 -0.0755 0.046711 0 100 0
-0.286835 -0.0755 0.0334687 0 100 0
-0.318736 -0.0755 0.051668 0 100 0
-0.0947634 -0.0755 0.0318454 0 100 0
-0.293377 -0.0755 0.0508797 0 100 0
-0.194346 -0.0755 0.0743613 0 100 0
-0.310765 -0.0755 0.0561469 0 100 0
-0.165814 -0.0755 0.0704483 0 100 0
-0.3969 -0.0755 0.0325319 0 100 0
-0.296658 -0.0755 0.0668934 0 100 0
-0.0991528 -0.0755 0.0675291 0 100 0
-0.286483 -0.0755 0.0629345 0 100 0
-0.107898 -0.0755 0.0644277 0 100 0
-0.412412 -0.0755 0.0669579 0 100 0
-0.159588 -0.0755 0.0621486 0 100 0
-0.229957 -0.0755 0.0726939 0 100 0
-0.409935 -0.0755 0.0698548 0 100 0
-0.358292 -0.0755 0.0341034 0 100 0
-0.263148 -0.0755 0.0315034 0 100 0
-0.158802 -0.0755 0.049658 0 100 0
-0.31814 -0.0755 0.074675 0 100 0
-0.079207 -0.0755 0.0666506 0 100 0
-0.208354 -0.0755 0.0560789 0 100 0
-0.260926 -0.0755 0.0716653 0 100 0
-0.337656 -0.0755 0.0650175 0 100 0
-0.301719 -0.0755 0.0431741 0 100 0
-0.171967 -0.0755 0.0609091 0 100 0
-0.237958 -0.0755 0.0327763 0 100 0
-0.0965952 -0.0755 0.0407877 0 100 0
-0.174755 -0.0755 0.0684317 0 100 0
-0.119813 -0.0755 0.0351429 0 100 0
-0.398539 -0.0755 0.048503 0 100 0
-0.22853 -0.0755 0.0647482 0 100 0
-0.0897083 -0.0755 0.036241 0 100 0
-0.0726792 -0.0755 0.0734492 0 100 0
-0.239098 -0.0755 0.0522992 0 100 0
-0.277194 -0.0755 0.0490793 0 100 0
-0.181191 -0.0755 0.0504919 0 100 0
-0.105985 -0.0755 0.0601544 0 100 0
-0.0787569 -0.0755 0.0770738 0 100 0
-0.21305 -0.0755 0.0336564 0 100 0
-0.121902 -0.0755 0.0684493 0 100 0
-0.20749 -0.0755 0.0334179 0 100 0
-0.370008 -0.0755 0.0596251 0 100 0
-0.354304 -0.0755 0.0458437 0 100 0
-0.151085 -0.0755 0.0563844 0 100 0
-0.341283 -0.0755 0.0443359 0 100 0
-0.293271 -0.0755 0.0782553 0 100 0
-0.154419 -0.0755 0.0400069 0 100 0
-0.171116 -0.0755 0.0368801 0 100 0
-0.400339 -0.0755 0.0745453 0 100 0
-0.257069 -0.0755 0.0357732 0 100 0
-0.118692 -0.0755 0.0358412 0 100 0
-0.363736 -0.0755 0.0619945 0 100 0
-0.216933 -0.0755 0.0595465 0 100 0
-0.270999 -0.0755 0.0469284 0 100 0
-0.157696 -0.0755 0.0770164 0 100 0
-0.110752 -0.0755 0.0431473 0 100 0
-0.314354 -0.0755 0.0655548 0 100 0
-0.137553 -0.0755 0.0518909 0 100 0
-0.314262 -0.0755 0.0707581 0 100 0
-0.248695 -0.0755 0.0685658 0 100 0
-0.411033 -0.0755 0.0609757 0 100 0
-0.386574 -0.0755 0.0640567 0 100 0
-0.110729 -0.0755 0.073697 0 100 0
-0.362459 -0.0755 0.0431419 0 100 0
-0.249721 -0.0755 0.0706873 0 100 0
-0.347084 -0.1245 0.0729897 0 100 0
-0.320132 -0.1245 0.0759494 0 100 0
-0.174494 -0.1245 0.0393144 0 100 0
-0.155413 -0.1245 0.0518792 0 100 0
-0.149104 -0.1245 0.0784631 0 100 0
-0.180904 -0.1245 0.050523 0 100 0
-0.38323 -0.1245 0.0749819 0 100 0
-0.257717 -0.1245 0.0749255 0 100 0
-0.172238 -0.1245 0.0590892 0 100 0
-0.123273 -0.1245 0.0601942 0 100 0
-0.151301 -0.1245 0.066459 0 100 0
-0.377409 -0.1245 0.0783926 0 100 0
-0.216593 -0.1245 0.0754307 0 100 0
-0.382299 -0.1245 0.0709362 0 100 0
-0.396419 -0.1245 0.0364809 0 100 0
-0.0877293 -0.1245 0.0504341 0 100 0
-0.348279 -0.1245 0.0448024 0 100 0
-0.365167 -0.1245 0.0731303 0 100 0
-0.393363 -0.1245 0.0637208 0 100 0
-0.184869 -0.1245 0.0564347 0 100 0
-0.331563 -0.1245 0.0763594 0 100 0
-0.172187 -0.1245 0.0776126 0 100 0
-0.225839 -0.1245 0.0738889 0 100 0
-0.38156 -0.1245 0.0654023 0 100 0
-0.337064 -0.1245 0.0470083 0 100 0
-0.343073 -0.1245 0.0540862 0 100 0
-0.335377 -0.1245 0.0594428 0 100 0
-0.159499 -0.1245 0.0578499 0 100 0
-0.210846 -0.1245 0.0749328 0 100 0
-0.403558 -0.1245 0.0434114 0 100 0
-0.358021 -0.1245 0.0629271 0 100 0
-0.226925 -0.1245 0.0650878 0 100 0
-0.299396 -0.1245 0.0670345 0 100 0
-0.223494 -0.1245 0.0756685 0 100 0
-0.394347 -0.1245 0.0343784 0 100 0
-0.204486 -0.1245 0.060528 0 100 0
-0.115359 -0.1245 0.0509584 0 100 0
-0.307661 -0.1245 0.0374639 0 100 0
-0.335669 -0.1245 0.0585621 0 100 0
-0.282078 -0.1245 0.0703639 0 100 0
-0.206319 -0.1245 0.0739663 0 100 0
-0.360048 -0.1245 0.07529 0 100 0
-0.276889 -0.1245 0.0458448 0 100 0
-0.346975 -0.1245 0.0521351 0 100 0
-0.174164 -0.1245 0.0534647 0 100 0
-0.0820764 -0.1245 0.0413848 0 100 0
-0.317932 -0.1245 0.0675574 0 100 0
-0.248222 -0.1245 0.0383994 0 100 0
-0.187191 -0.1245 0.0538697 0 100 0
-0.405116 -0.1245 0.0492695 0 100 0
-0.404292 -0.1245 0.0707645 0 100 0
-0.225678 -0.1245 0.030868 0 100 0
-0.143923 -0.1245 0.0305341 0 100 0
-0.0788668 -0.1245 0.0787575 0 100 0
-0.234947 -0.1245 0.0459259 0 100 0
-0.354462 -0.1245 0.0501982 0 100 0
-0.35895 -0.1245 0.0403166 0 100 0
-0.164174 -0.1245 0.0750225 0 100 0
-0.168057 -0.1245 0.0535694 0 100 0
-0.314607 -0.1245 0.0626704 0 100 0
-0.100623 -0.1245 0.0772075 0 100 0
-0.0957205 -0.1245 0.0337556 0 100 0
-0.274628 -0.1245 0.0615558 0 100 0
-0.231468 -0.1245 0.0511151 0 100 0
-0.10669 -0.1245 0.058132 0 100 0
-0.179918 -0.1245 0.061603 0 100 0
-0.318885 -0.1245 0.0740842 0 100 0
-0.283975 -0.1245 0.0430391 0 100 0
-0.374634 -0.1245 0.0675625 0 100 0
-0.078194 -0.1245 0.0593557 0 100 0
-0.251817 -0.1245 0.0614749 0 100 0
-0.155014 -0.1245 0.0753147 0 100 0
-0.173021 -0.1245 0.0388495 0 100 0
-0.146151 -0.1245 0.0355363 0 100 0
-0.389404 -0.1245 0.0363476 0 100 0
-0.367309 -0.1245 0.0519337 0 100 0
-0.0733697 -0.1245 0.0756577 0 100 0
-0.303643 -0.1245 0.0619721 0 100 0
-0.313076 -0.1245 0.0595221 0 100 0
-0.140226 -0.1245 0.040657 0 100 0
-0.137118 -0.1245 0.0457857 0 100 0
-0.0718436 -0.1245 0.0532327 0 100 0
-0.107025 -0.1245 0.0533251 0 100 0
-0.31384 -0.1245 0.0789047 0 100 0
-0.29844 -0.1245 0.047523 0 100 0
-0.138629 -0.1245 0.0350892 0 100 0
-0.170922 -0.1245 0.0343866 0 100 0
-0.134652 -0.1245 0.0531084 0 100 0
-0.36997 -0.1245 0.0784534 0 100 0
-0.161672 -0.1245 0.0705332 0 100 0
-0.156068 -0.1245 0.0579796 0 100 0
-0.24703 -0.1245 0.0306456 0 100 0
-0.381438 -0.1245 0.0522578 0 100 0
-0.38219 -0.1245 0.0522733 0 100 0
-0.0992964 -0.1245 0.0324317 0 100 0
-0.255801 -0.1245 0.06349 0 100 0
-0.222676 -0.1245 0.0690358 0 100 0
-0.214211 -0.1245 0.0758154 0 100 0
-0.18791 -0.1245 0.0428109 0 100 0
-0.115355 -0.1245 0.0697676 0 100 0
-0.296262 -0.1245 0.0740281 0 100 0
-0.213142 -0.1245 0.0631413 0 100 0
-0.162521 -0.1245 0.0693037 0 100 0
-0.373451 -0.1245 0.0630134 0 100 0
-0.237784 -0.1245 0.0768143 0 100 0
-0.376587 -0.1245 0.0658509 0 100 0
-0.38612 -0.1245 0.0326779 0 100 0
-0.149851 -0.1245 0.048755 0 100 0
-0.172948 -0.1245 0.0669718 0 100 0
-0.173142 -0.1245 0.0780064 0 100 0
-0.253667 -0.1245 0.0618981 0 100 0
-0.255176 -0.1245 0.0517178 0 100 0
-0.272431 -0.1245 0.0538181 0 100 0
-0.141442 -0.1245 0.0638049 0 100 0
-0.0835308 -0.1245 0.0496677 0 100 0
-0.283636 -0.1245 0.0515912 0 100 0
-0.239432 -0.1245 0.0773147 0 100 0
-0.353632 -0.1245 0.0480054 0 100 0
-0.37472 -0.1245 0.0496026 0 100 0
-0.162496 -0.1245 0.030676 0 100 0
-0.392774 -0.1245 0.074986 0 100 0
-0.408243 -0.1245 0.0369261 0 100 0
-0.172118 -0.1245 0.0729866 0 100 0
-0.378696 -0.1245 0.0693162 0 100 0
-0.35342 -0.1245 0.072082 0 100 0
-0.257414 -0.1245 0.0320981 0 100 0
-0.349474 -0.1245 0.036243 0 100 0
-0.267978 -0.1245 0.0459897 0 100 0
-0.0967003 -0.1245 0.0380757 0 100 0
-0.192195 -0.1245 0.0584483 0 100 0
-0.310776 -0.1245 0.0686269 0 100 0
-0.352331 -0.1245 0.0500559 0 100 0
-0.111617 -0.1245 0.0357766 0 100 0
-0.144337 -0.1245 0.0779522 0 100 0
-0.245499 -0.1245 0.0380401 0 100 0
-0.384317 -0.1245 0.0657554 0 100 0
-0.323634 -0.1245 0.0351432 0 100 0
-0.271633 -0.1245 0.0708783 0 100 0
-0.157828 -0.1245 0.0404621 0 100 0
-0.162069 -0.1245 0.0444475 0 100 0
-0.357961 -0.1245 0.0530405 0 100 0
-0.28874 -0.1245 0.0633398 0 100 0
-0.0657164 -0.1245 0.0502347 0 100 0
-0.300797 -0.1245 0.0505491 0 100 0
-0.377974 -0.1245 0.0582756 0 100 0
-0.108868 -0.1245 0.0668002 0 100 0
-0.40833 -0.1245 0.0652793 0 100 0
-0.393011 -0.1245 0.0707699 0 100 0
-0.395117 -0.1245 0.0406046 0 100 0
-0.18993 -0.1245 0.0670732 0 100 0
-0.149591 -0.1245 0.0643659 0 100 0
-0.379555 -0.1245 0.0394966 0 100 0
-0.10938 -0.1245 0.0408622 0 100 0
-0.134793 -0.1245 0.0549958 0 100 0
-0.198565 -0.1245 0.0490418 0 100 0
-0.352409 -0.1245 0.0583055 0 100 0
-0.287224 -0.1245 0.0593166 0 100 0
-0.192534 -0.1245 0.0380942 0 100 0
-0.090549 -0.1245 0.0588553 0 100 0
-0.0673038 -0.1245 0.0563438 0 100 0
-0.132474 -0.1245 0.0307399 0 100 0
-0.250763 -0.1245 0.0354911 0 100 0
-0.298939 -0.1245 0.0353405 0 100 0
-0.131385 -0.1245 0.0592831 0 100 0
-0.157 -0.1245 0.0453893 0 100 0
-0.248796 -0.1245 0.0312111 0 100 0
-0.402901 -0.1245 0.0370074 0 100 0
-0.229008 -0.1245 0.0593184 0 100 0
-0.129031 -0.1245 0.069163 0 100 0
-0.257767 -0.1245 0.0316273 0 100 0
-0.186245 -0.1245 0.0683944 0 100 0
