ply
format ascii 1.0
comment Created by Open3D
element vertex 1342
property double x
property double y
property double z
property uchar red
property uchar green
property uchar blue
end_header
0.0318404 0.073869 0.0005 255 0 0
-0.00770014 -0.107277 0.0005 255 0 0
0.0888698 -0.0639444 0.0005 255 0 0
0.0991358 -0.0515046 0.0005 255 0 0
-0.0424675 0.0926093 0.0005 255 0 0
0.09433 -0.0374016 0.0005 255 0 0
0.0612228 -0.105997 0.0005 255 0 0
-0.101572 0.0543662 0.0005 255 0 0
0.017544 0.120447 0.0005 255 0 0
-0.0231964 -0.031491 0.0005 255 0 0
-0.0596251 0.0847637 0.0005 255 0 0
-0.0563192 -0.12169 0.0005 255 0 0
0.0176074 0.0889061 0.0005 255 0 0
0.00680797 0.0835043 0.0005 255 0 0
-0.000289459 0.0145046 0.0005 255 0 0
0.0487049 -0.0754181 0.0005 255 0 0
0.0778946 0.112138 0.0005 255 0 0
-0.0159922 0.0254492 0.0005 255 0 0
0.123545 0.107831 0.0005 255 0 0
-0.0233249 0.054555 0.0005 255 0 0
-0.099965 -0.0317239 0.0005 255 0 0
0.0933216 0.0584193 0.0005 255 0 0
-0.0934842 -0.0865191 0.0005 255 0 0
0.100524 0.124265 0.0005 255 0 0
0.0124131 0.041426 0.0005 255 0 0
0.122162 0.0848186 0.0005 255 0 0
-0.00796591 -0.0763433 0.0005 255 0 0
0.0703776 0.114797 0.0005 255 0 0
-0.00339851 -0.107919 0.0005 255 0 0
-0.0666227 -0.0178364 0.0005 255 0 0
0.113428 0.0306681 0.0005 255 0 0
0.00754224 0.0699658 0.0005 255 0 0
0.118441 0.0841038 0.0005 255 0 0
0.0466009 -0.0597262 0.0005 255 0 0
0.00746413 0.0721724 0.0005 255 0 0
-0.118419 -0.0994518 0.0005 255 0 0
-0.0975927 0.0800719 0.0005 255 0 0
-0.006303 0.115023 0.0005 255 0 0
0.0968696 -0.0725817 0.0005 255 0 0
-0.0342955 -0.116221 0.0005 255 0 0
0.0451952 -0.112486 0.0005 255 0 0
-0.113208 -0.0635099 0.0005 255 0 0
-0.0620699 0.0834923 0.0005 255 0 0
-0.0491084 0.116079 0.0005 255 0 0
-0.121985 -0.114743 0.0005 255 0 0
-0.101936 0.114166 0.0005 255 0 0
-0.0527082 0.0866666 0.0005 255 0 0
0.0837831 -0.0118195 0.0005 255 0 0
0.0928581 0.00271849 0.0005 255 0 0
-0.00338152 0.0352785 0.0005 255 0 0
-0.0321926 -0.115012 0.0005 255 0 0
-0.0158622 0.116992 0.0005 255 0 0
-0.0935873 -0.121428 0.0005 255 0 0
-0.00318825 -0.100181 0.0005 255 0 0
0.0873693 -0.0421295 0.0005 255 0 0
0.0537433 0.0709314 0.0005 255 0 0
0.0806956 -0.0479672 0.0005 255 0 0
0.0643232 -0.0699858 0.0005 255 0 0
0.105064 -0.0682459 0.0005 255 0 0
-0.0294529 0.108254 0.0005 255 0 0
-0.118002 -0.0363585 0.0005 255 0 0
0.0619008 -0.0450194 0.0005 255 0 0
0.0560536 0.0104411 0.0005 255 0 0
0.0217058 -0.0246403 0.0005 255 0 0
0.107736 -0.0506313 0.0005 255 0 0
-0.0855037 -0.106323 0.0005 255 0 0
-0.0224082 0.0849855 0.0005 255 0 0
0.112224 -0.0369728 0.0005 255 0 0
-0.036887 0.0415201 0.0005 255 0 0
-0.0898673 0.0387769 0.0005 255 0 0
0.0981282 0.117241 0.0005 255 0 0
0.0744997 -0.0615332 0.0005 255 0 0
-0.0525752 -0.0485945 0.0005 255 0 0
0.0614437 -0.037216 0.0005 255 0 0
-0.109098 0.113806 0.0005 255 0 0
-0.0124562 0.00348155 0.0005 255 0 0
0.119127 -0.0610186 0.0005 255 0 0
0.0758558 -0.0951845 0.0005 255 0 0
-0.0163462 0.0579227 0.0005 255 0 0
-0.0513947 0.0381543 0.0005 255 0 0
0.107565 -0.0632602 0.0005 255 0 0
-0.0983907 -0.0349744 0.0005 255 0 0
-0.000754832 0.0108332 0.0005 255 0 0
0.0011864 0.0206186 0.0005 255 0 0
-0.0349738 -0.0425623 0.0005 255 0 0
-0.0178505 0.121235 0.0005 255 0 0
-0.0939495 0.0154677 0.0005 255 0 0
0.0283571 0.0242047 0.0005 255 0 0
0.118393 0.0669729 0.0005 255 0 0
0.0566307 -0.12236 0.0005 255 0 0
-0.025403 0.115221 0.0005 255 0 0
0.113852 -0.100834 0.0005 255 0 0
-0.0337011 -0.00984638 0.0005 255 0 0
-0.037535 -0.0435489 0.0005 255 0 0
0.0910723 -0.0538017 0.0005 255 0 0
-0.117093 0.0160275 0.0005 255 0 0
-0.0125622 -0.0774233 0.0005 255 0 0
-0.0697826 0.0563408 0.0005 255 0 0
0.0687446 -0.0144412 0.0005 255 0 0
0.0940722 0.0314035 0.0005 255 0 0
-0.0088596 0.0459662 0.0005 255 0 0
-0.112972 -0.070373 0.0005 255 0 0
-0.0576239 -0.018331 0.0005 255 0 0
0.0393399 -0.0139275 0.0005 255 0 0
0.092058 0.0876888 0.0005 255 0 0
0.0415415 -0.116997 0.0005 255 0 0
-0.0906824 0.0934891 0.0005 255 0 0
-0.0830527 0.0333345 0.0005 255 0 0
0.107521 0.0545683 0.0005 255 0 0
-0.0975197 0.0974885 0.0005 255 0 0
0.0609381 -0.09564 0.0005 255 0 0
0.0788323 -0.00502455 0.0005 255 0 0
-0.0210073 0.00919518 0.0005 255 0 0
0.118295 0.0108661 0.0005 255 0 0
-0.0423933 0.108972 0.0005 255 0 0
0.105189 -0.114332 0.0005 255 0 0
-0.0912661 -0.018415 0.0005 255 0 0
0.0318058 0.116744 0.0005 255 0 0
0.0229979 0.033296 0.0005 255 0 0
-0.0655607 0.0686603 0.0005 255 0 0
0.0666436 0.0481378 0.0005 255 0 0
-0.10706 0.0728407 0.0005 255 0 0
0.11881 -0.00708985 0.0005 255 0 0
-0.0237833 0.0502726 0.0005 255 0 0
0.00718016 0.0281518 0.0005 255 0 0
0.0965297 0.12431 0.0005 255 0 0
-0.0979611 0.121398 0.0005 255 0 0
-0.0821152 -0.0352406 0.0005 255 0 0
0.0214924 -0.0308635 0.0005 255 0 0
-0.0916244 -0.0802488 0.0005 255 0 0
-0.0346425 -0.0481017 0.0005 255 0 0
-0.0495994 -0.0145201 0.0005 255 0 0
0.0642003 -0.0539255 0.0005 255 0 0
0.0315923 0.0688069 0.0005 255 0 0
0.102566 0.0897732 0.0005 255 0 0
-0.0354957 0.0663992 0.0005 255 0 0
0.0354763 -0.0741049 0.0005 255 0 0
-0.080296 -0.0383051 0.0005 255 0 0
0.00674061 -0.0872897 0.0005 255 0 0
0.0843887 -0.088535 0.0005 255 0 0
-0.0790625 -0.0783859 0.0005 255 0 0
0.0166324 0.0473783 0.0005 255 0 0
-0.0119003 -0.0575215 0.0005 255 0 0
0.120834 -0.0584316 0.0005 255 0 0
-0.0924418 0.0347425 0.0005 255 0 0
0.0154785 0.0101751 0.0005 255 0 0
0.0899463 0.092016 0.0005 255 0 0
0.12369 -0.0872192 0.0005 255 0 0
0.086504 0.0109246 0.0005 255 0 0
0.0511295 -0.123564 0.0005 255 0 0
-0.0682998 0.0431467 0.0005 255 0 0
0.0700946 0.0766034 0.0005 255 0 0
0.03022 -0.0830566 0.0005 255 0 0
-0.109174 -0.0203409 0.0005 255 0 0
-0.040679 -0.111427 0.0005 255 0 0
0.0817678 -0.0139371 0.0005 255 0 0
-0.111129 0.11635 0.0005 255 0 0
-0.0898355 -0.118052 0.0005 255 0 0
-0.093238 -0.0804395 0.0005 255 0 0
0.0629848 0.0552816 0.0005 255 0 0
-0.0741799 -0.031326 0.0005 255 0 0
-0.0422708 0.0548813 0.0005 255 0 0
0.0769758 0.0606483 0.0005 255 0 0
0.111918 0.0199749 0.0005 255 0 0
-0.0643334 0.00135039 0.0005 255 0 0
0.0523985 -0.020504 0.0005 255 0 0
-0.00497444 -0.104845 0.0005 255 0 0
0.0963603 -0.0261367 0.0005 255 0 0
-0.0762356 0.0591414 0.0005 255 0 0
-0.118305 -0.0417131 0.0005 255 0 0
-0.102355 0.0307674 0.0005 255 0 0
-0.0700529 0.0451503 0.0005 255 0 0
0.00318164 -0.0682134 0.0005 255 0 0
0.109667 0.0776118 0.0005 255 0 0
0.042427 -0.046048 0.0005 255 0 0
0.102727 -0.0146978 0.0005 255 0 0
-0.0888209 -0.0581007 0.0005 255 0 0
-0.00492804 -0.0789259 0.0005 255 0 0
-0.117958 0.10844 0.0005 255 0 0
-0.118439 0.0490851 0.0005 255 0 0
0.0906054 -0.12422 0.0005 255 0 0
0.0200319 -0.0186931 0.0005 255 0 0
0.01503 -0.108909 0.0005 255 0 0
0.0155484 -0.0806813 0.0005 255 0 0
-0.0234783 0.111289 0.0005 255 0 0
0.0105415 -0.113692 0.0005 255 0 0
0.0646379 -0.0112377 0.0005 255 0 0
0.095379 0.0874521 0.0005 255 0 0
-0.112489 0.0434573 0.0005 255 0 0
0.113025 -0.0473649 0.0005 255 0 0
-0.0424054 -0.0377965 0.0005 255 0 0
-0.110241 0.0532361 0.0005 255 0 0
0.11732 -0.014366 0.0005 255 0 0
-0.10477 -0.120598 0.0005 255 0 0
-0.107891 0.0327412 0.0005 255 0 0
-0.066874 -0.108268 0.0005 255 0 0
-0.0728459 -0.00476684 0.0005 255 0 0
0.0294595 -0.0547038 0.0005 255 0 0
0.031939 0.036444 0.0005 255 0 0
-0.0159037 -0.0632891 0.0005 255 0 0
0.0490614 0.0790999 0.0005 255 0 0
0.0662206 -0.00855443 0.0005 255 0 0
-0.0139291 0.112001 0.0005 255 0 0
0.0239375 -0.0533126 0.0005 255 0 0
-0.114359 -0.107747 0.0005 255 0 0
0.0133563 0.00643702 0.0005 255 0 0
0.00520008 0.0218391 0.0005 255 0 0
0.025228 -0.0250905 0.0005 255 0 0
0.0425696 -0.106467 0.0005 255 0 0
-0.0929414 -0.0654732 0.0005 255 0 0
0.0579169 -0.0192479 0.0005 255 0 0
-0.031929 0.0667666 0.0005 255 0 0
0.00408066 -0.100143 0.0005 255 0 0
-0.036253 0.105009 0.0005 255 0 0
0.0424596 0.0915259 0.0005 255 0 0
0.0281116 0.0150003 0.0005 255 0 0
-0.0116019 -0.0349782 0.0005 255 0 0
-0.0966083 0.0625539 0.0005 255 0 0
-0.122204 0.0914364 0.0005 255 0 0
-0.0689802 -0.0378336 0.0005 255 0 0
-0.120446 -0.0854485 0.0005 255 0 0
-0.00810749 0.081874 0.0005 255 0 0
-0.0448933 -0.0856233 0.0005 255 0 0
-0.0298219 0.0872082 0.0005 255 0 0
-0.0024348 0.111507 0.0005 255 0 0
0.0689188 0.0816891 0.0005 255 0 0
-0.00283386 0.122419 0.0005 255 0 0
-0.0705886 -0.123093 0.0005 255 0 0
-0.0281025 0.0961382 0.0005 255 0 0
-0.0725923 -0.0622392 0.0005 255 0 0
0.0167083 0.108399 0.0005 255 0 0
-0.0351121 -0.0833787 0.0005 255 0 0
0.070555 0.0523213 0.0005 255 0 0
0.0138446 0.0398303 0.0005 255 0 0
0.0361188 0.0514554 0.0005 255 0 0
-0.0217614 -0.120579 0.0005 255 0 0
0.0944153 -0.123597 0.0005 255 0 0
0.08585 -0.0471579 0.0005 255 0 0
0.0832237 0.0629403 0.0005 255 0 0
0.032707 0.0636423 0.0005 255 0 0
-0.0165539 -0.0507748 0.0005 255 0 0
0.00188787 -0.109634 0.0005 255 0 0
-0.104824 0.122619 0.0005 255 0 0
-0.0836626 0.0843695 0.0005 255 0 0
0.0761945 0.124401 0.0005 255 0 0
-0.0867835 -0.0646832 0.0005 255 0 0
-0.00475327 0.0880471 0.0005 255 0 0
0.114273 -0.0455171 0.0005 255 0 0
-0.0202243 0.118264 0.0005 255 0 0
-0.0435975 0.0113099 0.0005 255 0 0
0.0589887 -0.0939096 0.0005 255 0 0
0.0547649 0.0457451 0.0005 255 0 0
-0.123905 -0.0504191 0.0005 255 0 0
-0.115243 -0.00582977 0.0005 255 0 0
-0.119606 0.0820586 0.0005 255 0 0
-0.114017 0.014817 0.0005 255 0 0
0.0790661 -0.0915614 0.0005 255 0 0
-0.0219455 -0.00664553 0.0005 255 0 0
0.0906379 -0.031299 0.0005 255 0 0
0.0449206 0.0705602 0.0005 255 0 0
0.0364531 -0.016924 0.0005 255 0 0
-0.0343525 0.0436127 0.0005 255 0 0
0.0952302 0.0369695 0.0005 255 0 0
-0.0868279 -0.0284026 0.0005 255 0 0
-0.00443499 0.0217944 0.0005 255 0 0
-0.00520132 -0.0771059 0.0005 255 0 0
0.114831 0.0219398 0.0005 255 0 0
-0.0355248 -0.0994053 0.0005 255 0 0
0.00424657 -0.124264 0.0005 255 0 0
-0.0478592 -0.0796418 0.0005 255 0 0
-0.0928484 -0.078989 0.0005 255 0 0
-0.0752383 -0.0481019 0.0005 255 0 0
-0.110661 -0.0873909 0.0005 255 0 0
-0.00249137 -0.0238376 0.0005 255 0 0
0.100206 -0.0121259 0.0005 255 0 0
0.0317395 0.0803685 0.0005 255 0 0
0.0533254 -0.0386067 0.0005 255 0 0
0.110686 0.0752044 0.0005 255 0 0
-0.0524081 -0.0398269 0.0005 255 0 0
0.0962581 0.0108302 0.0005 255 0 0
-0.0775637 0.0330726 0.0005 255 0 0
0.118177 -0.0374798 0.0005 255 0 0
-0.091448 0.0933438 0.0005 255 0 0
0.013189 0.102472 0.0005 255 0 0
0.00720241 0.00393393 0.0005 255 0 0
0.0018061 -0.0144942 0.0005 255 0 0
0.0735242 -0.00839503 0.0005 255 0 0
-0.0900162 -0.0843869 0.0005 255 0 0
-0.0993983 0.114157 0.0005 255 0 0
-0.0189283 -0.0948598 0.0005 255 0 0
-0.0395971 0.0903382 0.0005 255 0 0
-0.0171411 0.00906118 0.0005 255 0 0
0.0358826 -0.0636029 0.0005 255 0 0
0.0566582 0.0233369 0.0005 255 0 0
-0.0684877 0.114359 0.0005 255 0 0
0.121694 0.0925009 0.0005 255 0 0
-0.111348 -0.0561129 0.0005 255 0 0
0.0359975 -0.0726986 0.0005 255 0 0
0.0761043 -0.00380944 0.0005 255 0 0
0.0696473 -0.0775078 0.0005 255 0 0
-0.0827169 -0.117706 0.0005 255 0 0
-0.0449743 0.00111378 0.0005 255 0 0
-0.102301 -0.0103411 0.0005 255 0 0
0.0954596 0.0085382 0.0005 255 0 0
0.0784248 -0.0771333 0.0005 255 0 0
0.0517541 -0.114013 0.0005 255 0 0
0.0919979 -0.0067183 0.0005 255 0 0
0.0780188 0.0230092 0.0005 255 0 0
0.0850557 -0.11082 0.0005 255 0 0
-0.0786312 -0.113165 0.0005 255 0 0
-0.0845325 -0.0432155 0.0005 255 0 0
-0.0619271 0.0441346 0.0005 255 0 0
-0.111145 -0.0492899 0.0005 255 0 0
0.0711129 0.060041 0.0005 255 0 0
-0.0565215 -0.0348348 0.0005 255 0 0
-0.0992759 -0.0569239 0.0005 255 0 0
-0.031973 -0.0167212 0.0005 255 0 0
-0.0958477 -0.0877934 0.0005 255 0 0
-0.105779 -0.0898091 0.0005 255 0 0
0.00506233 -0.0461875 0.0005 255 0 0
0.106565 -0.0385051 0.0005 255 0 0
-0.0115445 -0.0357153 0.0005 255 0 0
-0.039199 0.0539671 0.0005 255 0 0
0.077206 0.0716145 0.0005 255 0 0
0.0376371 0.12227 0.0005 255 0 0
-0.035805 -0.0584232 0.0005 255 0 0
-0.108412 -0.0301449 0.0005 255 0 0
-0.00544657 -0.0115136 0.0005 255 0 0
0.0998548 -0.119755 0.0005 255 0 0
0.058425 0.0809574 0.0005 255 0 0
-0.0382965 -0.119425 0.0005 255 0 0
-0.0771681 -0.0276786 0.0005 255 0 0
-0.0456007 0.018402 0.0005 255 0 0
0.0943928 -0.039884 0.0005 255 0 0
0.0363254 -0.000429283 0.0005 255 0 0
-0.118779 0.11897 0.0005 255 0 0
0.0145403 -0.0362581 0.0005 255 0 0
0.0264354 -0.047553 0.0005 255 0 0
0.0793182 0.0750769 0.0005 255 0 0
0.100686 -0.0420512 0.0005 255 0 0
-0.08563 0.0156587 0.0005 255 0 0
0.00221127 0.0140959 0.0005 255 0 0
-0.0999327 -0.0506787 0.0005 255 0 0
0.0754056 -0.0665674 0.0005 255 0 0
0.00602454 0.038143 0.0005 255 0 0
-0.121198 -0.0945689 0.0005 255 0 0
0.0387232 0.0681668 0.0005 255 0 0
-0.0586945 0.00644138 0.0005 255 0 0
-0.0843537 0.0364192 0.0005 255 0 0
-0.11395 -0.045973 0.0005 255 0 0
0.114657 -0.100335 0.0005 255 0 0
0.0896896 0.0683144 0.0005 255 0 0
-0.00639957 0.114503 0.0005 255 0 0
-0.0936075 -0.0306321 0.0005 255 0 0
-0.00820641 -0.0308209 0.0005 255 0 0
0.0817677 0.0495763 0.0005 255 0 0
-0.117455 -0.0428608 0.0005 255 0 0
-0.0900694 -0.0495243 0.0005 255 0 0
0.103902 0.0402833 0.0005 255 0 0
0.00835672 -0.0282384 0.0005 255 0 0
0.0921561 -0.0998635 0.0005 255 0 0
0.122691 -0.0716931 0.0005 255 0 0
-0.117137 -0.0227398 0.0005 255 0 0
0.119564 -0.00910211 0.0005 255 0 0
-0.091416 -0.101151 0.0005 255 0 0
0.0410036 0.0120102 0.0005 255 0 0
-0.0303777 -0.10893 0.0005 255 0 0
0.0969526 -0.00585127 0.0005 255 0 0
-0.0994942 -0.0636116 0.0005 255 0 0
0.1134 -0.0505015 0.0005 255 0 0
-0.0831837 -0.113634 0.0005 255 0 0
0.0856766 0.0653685 0.0005 255 0 0
-0.0175203 -0.0558284 0.0005 255 0 0
-0.0164669 0.00841484 0.0005 255 0 0
-0.03601 -0.0278527 0.0005 255 0 0
0.117672 -0.0216166 0.0005 255 0 0
-0.0628229 0.0434732 0.0005 255 0 0
-0.0559843 0.062864 0.0005 255 0 0
0.0227995 -0.0712325 0.0005 255 0 0
-0.0509343 0.0644346 0.0005 255 0 0
-0.0766747 -0.048282 0.0005 255 0 0
0.0887658 0.0396023 0.0005 255 0 0
0.0538885 0.0851471 0.0005 255 0 0
0.0463922 0.00439286 0.0495 255 0 0
-0.111046 -0.0623752 0.0495 255 0 0
0.0434796 -0.0185976 0.0495 255 0 0
0.0935289 0.010127 0.0495 255 0 0
0.0684874 -0.101381 0.0495 255 0 0
-0.0667036 -0.0849023 0.0495 255 0 0
0.0654615 0.1067 0.0495 255 0 0
-0.0755713 0.0501034 0.0495 255 0 0
0.114658 -0.0307278 0.0495 255 0 0
0.112871 -0.0507801 0.0495 255 0 0
0.0666883 0.0536748 0.0495 255 0 0
-0.106841 -0.0175405 0.0495 255 0 0
0.0915925 0.0906809 0.0495 255 0 0
0.115593 -0.0811575 0.0495 255 0 0
0.0996298 -0.0155128 0.0495 255 0 0
-0.0111146 0.0790491 0.0495 255 0 0
-0.0430771 0.0934264 0.0495 255 0 0
-0.00902823 -0.0735621 0.0495 255 0 0
-0.0920371 -0.0726844 0.0495 255 0 0
0.0271265 0.0510541 0.0495 255 0 0
0.119097 0.0330254 0.0495 255 0 0
-0.0925981 0.0798167 0.0495 255 0 0
-0.0936724 0.123402 0.0495 255 0 0
0.0112594 0.0974729 0.0495 255 0 0
0.0564878 -0.0466128 0.0495 255 0 0
-0.0141515 -0.0170144 0.0495 255 0 0
-0.0688673 -0.0239277 0.0495 255 0 0
0.00828862 0.0682221 0.0495 255 0 0
-0.0426961 0.123264 0.0495 255 0 0
-0.0276113 -0.093091 0.0495 255 0 0
0.102052 -0.0129877 0.0495 255 0 0
0.0556034 -0.0612609 0.0495 255 0 0
-0.023552 -0.049235 0.0495 255 0 0
0.108656 0.0935589 0.0495 255 0 0
0.0947955 0.0586974 0.0495 255 0 0
-0.0180343 0.119681 0.0495 255 0 0
-0.0130544 -0.0528716 0.0495 255 0 0
-0.0419909 -0.0497582 0.0495 255 0 0
-0.0230025 0.0366905 0.0495 255 0 0
-0.0966355 0.0449806 0.0495 255 0 0
0.0971823 0.0823381 0.0495 255 0 0
0.0163517 0.074158 0.0495 255 0 0
-0.0882587 0.0762051 0.0495 255 0 0
-0.0993043 0.0549674 0.0495 255 0 0
-0.0494269 0.0279115 0.0495 255 0 0
0.0281392 -0.0591728 0.0495 255 0 0
0.0177751 -0.09682 0.0495 255 0 0
0.0814412 -0.0653658 0.0495 255 0 0
-0.123867 -0.0607985 0.0495 255 0 0
-0.0952506 0.00845468 0.0495 255 0 0
0.0509109 -0.0837781 0.0495 255 0 0
-0.0454347 -0.0636331 0.0495 255 0 0
0.122207 -0.122697 0.0495 255 0 0
0.029558 0.0289448 0.0495 255 0 0
0.0916589 0.0994653 0.0495 255 0 0
-0.0550381 0.0388096 0.0495 255 0 0
0.107116 -0.0849302 0.0495 255 0 0
0.0577417 -0.0478433 0.0495 255 0 0
0.0229792 0.0578324 0.0495 255 0 0
-0.0655031 -0.00801415 0.0495 255 0 0
0.0803864 -0.0381917 0.0495 255 0 0
-0.0598524 -0.0830231 0.0495 255 0 0
0.102416 -0.046957 0.0495 255 0 0
0.0694613 -0.0835962 0.0495 255 0 0
-0.0827216 0.115454 0.0495 255 0 0
0.0142598 0.112572 0.0495 255 0 0
0.072281 -0.016672 0.0495 255 0 0
0.0617156 -0.0268968 0.0495 255 0 0
-0.000493739 -0.0240094 0.0495 255 0 0
-0.105443 -0.10163 0.0495 255 0 0
0.000977641 -0.00118174 0.0495 255 0 0
-0.121218 -0.00860619 0.0495 255 0 0
0.0520134 -0.0778166 0.0495 255 0 0
0.0261089 -0.0387352 0.0495 255 0 0
0.0206952 0.103866 0.0495 255 0 0
-0.118606 -0.0130775 0.0495 255 0 0
-0.066224 0.0779877 0.0495 255 0 0
-0.0702432 -0.0391279 0.0495 255 0 0
0.109567 -0.0923635 0.0495 255 0 0
-0.11721 -0.119376 0.0495 255 0 0
-0.0620973 0.0494635 0.0495 255 0 0
0.0659739 -0.0156662 0.0495 255 0 0
-0.120628 -0.070283 0.0495 255 0 0
-0.0585078 -0.11801 0.0495 255 0 0
0.0109035 0.0373688 0.0495 255 0 0
0.0649173 0.0281492 0.0495 255 0 0
-0.0124913 -0.0576826 0.0495 255 0 0
-0.0603284 -0.0841528 0.0495 255 0 0
0.0377244 0.0176117 0.0495 255 0 0
0.0146983 0.0729488 0.0495 255 0 0
-0.0135333 0.0479247 0.0495 255 0 0
0.112885 -0.0269922 0.0495 255 0 0
-0.0172616 0.0320685 0.0495 255 0 0
0.074055 -0.116938 0.0495 255 0 0
-0.0455254 -0.113136 0.0495 255 0 0
0.0373846 -0.103336 0.0495 255 0 0
-0.0396262 -0.0191906 0.0495 255 0 0
-0.000177522 -0.102472 0.0495 255 0 0
0.0400206 0.0809058 0.0495 255 0 0
-0.0409186 0.0390089 0.0495 255 0 0
-0.119672 -0.056144 0.0495 255 0 0
-0.0413878 0.00389705 0.0495 255 0 0
-0.00211597 0.0596595 0.0495 255 0 0
0.0853854 0.0282979 0.0495 255 0 0
-0.0717154 0.0400954 0.0495 255 0 0
-0.00157804 -0.0431398 0.0495 255 0 0
0.0536066 -0.10457 0.0495 255 0 0
-0.0529041 -0.0814841 0.0495 255 0 0
-0.0359884 -0.0986655 0.0495 255 0 0
-0.0519067 -0.00030214 0.0495 255 0 0
-0.0244957 -0.0810535 0.0495 255 0 0
0.00131996 0.117878 0.0495 255 0 0
-0.111399 0.0142973 0.0495 255 0 0
-0.0787347 -0.107091 0.0495 255 0 0
-0.0112584 -0.031481 0.0495 255 0 0
0.00237996 -0.027855 0.0495 255 0 0
-0.0990883 0.00786587 0.0495 255 0 0
0.120058 -0.0408427 0.0495 255 0 0
0.11113 -0.0283185 0.0495 255 0 0
0.024015 0.0116289 0.0495 255 0 0
0.0228562 -0.10432 0.0495 255 0 0
-0.104799 0.00783075 0.0495 255 0 0
0.0341392 0.0197833 0.0495 255 0 0
-0.0773118 -0.105252 0.0495 255 0 0
-0.109963 -0.0210672 0.0495 255 0 0
0.0220671 0.0643409 0.0495 255 0 0
-0.11862 0.0703797 0.0495 255 0 0
-0.0216274 0.107002 0.0495 255 0 0
0.0780369 0.0415596 0.0495 255 0 0
-0.00931066 0.0236923 0.0495 255 0 0
-0.0594089 0.0913222 0.0495 255 0 0
-0.0225492 -0.0205421 0.0495 255 0 0
-0.0925736 -0.115922 0.0495 255 0 0
0.0107264 -0.0518559 0.0495 255 0 0
-0.0173032 -0.0898125 0.0495 255 0 0
0.0992431 -0.0316698 0.0495 255 0 0
-0.0881404 -0.0389862 0.0495 255 0 0
0.00510096 0.0423119 0.0495 255 0 0
0.102305 -0.0465873 0.0495 255 0 0
-0.0305293 -0.0340682 0.0495 255 0 0
-0.0493936 0.0545216 0.0495 255 0 0
0.0632866 0.0384213 0.0495 255 0 0
-0.0519733 0.0148886 0.0495 255 0 0
0.0179736 0.0184122 0.0495 255 0 0
-0.117703 -0.0415039 0.0495 255 0 0
-0.0970197 -0.0417416 0.0495 255 0 0
0.00265819 -0.0732636 0.0495 255 0 0
0.0283993 0.0111713 0.0495 255 0 0
0.121312 0.0512376 0.0495 255 0 0
-0.0146482 0.0510132 0.0495 255 0 0
-0.0449659 0.121401 0.0495 255 0 0
-0.0526528 -0.114992 0.0495 255 0 0
0.00741156 0.00135713 0.0495 255 0 0
0.00147155 -0.0382655 0.0495 255 0 0
0.0998049 -0.00151925 0.0495 255 0 0
-0.101433 0.0353764 0.0495 255 0 0
-0.0323921 0.112344 0.0495 255 0 0
0.0186125 0.0430465 0.0495 255 0 0
0.0816636 -0.042454 0.0495 255 0 0
-0.121162 -0.0320065 0.0495 255 0 0
0.0499296 -0.0285023 0.0495 255 0 0
-0.100632 0.0550966 0.0495 255 0 0
-0.0540951 -0.0616492 0.0495 255 0 0
0.0305838 0.0903283 0.0495 255 0 0
0.105959 0.0273028 0.0495 255 0 0
-0.0131202 -0.1052 0.0495 255 0 0
0.0491922 0.0741147 0.0495 255 0 0
-0.0396846 -0.100801 0.0495 255 0 0
-0.0316661 0.0259485 0.0495 255 0 0
-0.0351234 0.0988879 0.0495 255 0 0
-0.0128328 0.0138122 0.0495 255 0 0
0.0558757 0.0130454 0.0495 255 0 0
0.0425527 0.118046 0.0495 255 0 0
-0.102248 0.038612 0.0495 255 0 0
-0.0344238 -0.038825 0.0495 255 0 0
0.12412 0.0754842 0.0495 255 0 0
-0.11326 -0.110797 0.0495 255 0 0
-0.102496 -0.0824599 0.0495 255 0 0
0.0531653 -0.0270133 0.0495 255 0 0
-0.0256545 -0.00662582 0.0495 255 0 0
-0.0497944 -0.0866104 0.0495 255 0 0
-0.0836206 0.0523382 0.0495 255 0 0
-0.0287425 0.087074 0.0495 255 0 0
-0.104147 -0.0812379 0.0495 255 0 0
-0.0251426 -0.0458394 0.0495 255 0 0
-0.0709443 0.075687 0.0495 255 0 0
-0.0345373 -0.108071 0.0495 255 0 0
-0.00665258 -0.0623368 0.0495 255 0 0
-0.10352 -0.00457569 0.0495 255 0 0
-0.0274216 0.0248421 0.0495 255 0 0
0.110998 -0.0694051 0.0495 255 0 0
-0.000625406 0.0767048 0.0495 255 0 0
-0.0293486 -0.00623081 0.0495 255 0 0
-0.0724824 0.0969285 0.0495 255 0 0
-0.0219061 -0.0356958 0.0495 255 0 0
-0.0118136 0.0841666 0.0495 255 0 0
-0.104723 0.0251328 0.0495 255 0 0
-0.025582 -0.0175095 0.0495 255 0 0
-0.113328 0.0981231 0.0495 255 0 0
-0.109777 -0.00964581 0.0495 255 0 0
-0.123068 0.0791683 0.0495 255 0 0
-0.00751225 0.0509393 0.0495 255 0 0
0.0964614 0.0862449 0.0495 255 0 0
-0.0751494 0.00277437 0.0495 255 0 0
-0.0645267 -0.0467057 0.0495 255 0 0
0.0280633 0.0932437 0.0495 255 0 0
-0.0709641 -0.0282317 0.0495 255 0 0
0.100106 -0.00268983 0.0495 255 0 0
0.0631135 -0.0263889 0.0495 255 0 0
-0.0738214 0.0483918 0.0495 255 0 0
-0.0541069 -0.00236337 0.0495 255 0 0
0.0288134 0.0285482 0.0495 255 0 0
-0.120982 0.108792 0.0495 255 0 0
0.0568324 -0.0716048 0.0495 255 0 0
-0.0640853 -0.094607 0.0495 255 0 0
-0.0652464 -0.0489861 0.0495 255 0 0
0.113236 -0.091897 0.0495 255 0 0
-0.0417015 -0.110373 0.0495 255 0 0
0.0465011 0.106495 0.0495 255 0 0
0.0598943 -0.0721667 0.0495 255 0 0
-0.0804327 0.0341759 0.0495 255 0 0
0.0131721 0.0482021 0.0495 255 0 0
-0.0752585 -0.00105198 0.0495 255 0 0
0.106959 -0.0736823 0.0495 255 0 0
-0.105533 -0.0427057 0.0495 255 0 0
0.00510399 -0.00882546 0.0495 255 0 0
0.0501207 -0.0861975 0.0495 255 0 0
0.115696 0.116114 0.0495 255 0 0
-0.075879 0.0363869 0.0495 255 0 0
-0.00131796 -0.0923718 0.0495 255 0 0
0.0102582 0.0952417 0.0495 255 0 0
-0.0597941 0.0679499 0.0495 255 0 0
0.0889485 0.0361709 0.0495 255 0 0
0.0642837 0.0977885 0.0495 255 0 0
-0.0100974 0.116113 0.0495 255 0 0
0.0821485 -0.012755 0.0495 255 0 0
0.0741314 -0.0595797 0.0495 255 0 0
0.0568807 -0.105312 0.0495 255 0 0
0.12119 -0.0398488 0.0495 255 0 0
0.0576953 -0.0680127 0.0495 255 0 0
-0.00480732 -0.100316 0.0495 255 0 0
-0.119736 0.0758883 0.0495 255 0 0
-0.0121281 0.0157807 0.0495 255 0 0
-0.0906289 -0.0777451 0.0495 255 0 0
-0.11364 0.0325458 0.0495 255 0 0
0.0271078 0.0314648 0.0495 255 0 0
0.0326756 0.0931127 0.0495 255 0 0
-0.0154725 0.0135306 0.0495 255 0 0
-0.0275051 0.0735252 0.0495 255 0 0
-0.10126 0.0574187 0.0495 255 0 0
0.0220235 0.0269646 0.0495 255 0 0
0.0321198 0.089789 0.0495 255 0 0
-0.0309172 0.0341465 0.0495 255 0 0
0.0613712 -0.102448 0.0495 255 0 0
0.0411144 0.108129 0.0495 255 0 0
0.0367745 0.054184 0.0495 255 0 0
0.0120157 0.0568124 0.0495 255 0 0
-0.0663358 0.00960897 0.0495 255 0 0
0.0133505 0.0601 0.0495 255 0 0
-0.0767702 0.0270048 0.0495 255 0 0
-0.0699098 -0.107325 0.0495 255 0 0
-0.0680131 -0.066995 0.0495 255 0 0
-0.0641928 -0.0667553 0.0495 255 0 0
0.0863102 -0.0775428 0.0495 255 0 0
-0.0197523 -0.0285005 0.0495 255 0 0
-0.0214415 0.0725303 0.0495 255 0 0
0.0662623 0.10321 0.0495 255 0 0
0.0762738 0.088205 0.0495 255 0 0
0.0612682 -0.0617963 0.0495 255 0 0
0.00322669 -0.0324889 0.0495 255 0 0
0.118714 0.0442743 0.0495 255 0 0
0.0167334 0.0845652 0.0495 255 0 0
0.00350122 -0.0814896 0.0495 255 0 0
0.104893 -0.0528339 0.0495 255 0 0
0.0858604 -0.0282621 0.0495 255 0 0
-0.0339484 -0.101104 0.0495 255 0 0
-0.0563875 0.0197848 0.0495 255 0 0
0.0171943 0.0522919 0.0495 255 0 0
0.0158873 -0.110064 0.0495 255 0 0
0.0488499 0.0112292 0.0495 255 0 0
-0.0592582 -0.024565 0.0495 255 0 0
-0.0126573 -0.0958347 0.0495 255 0 0
-0.114912 0.0856435 0.0495 255 0 0
0.0238219 0.0641879 0.0495 255 0 0
-0.124082 -0.123715 0.0495 255 0 0
-0.0564266 -0.118389 0.0495 255 0 0
-0.0743224 -0.0362681 0.0495 255 0 0
0.0625558 -0.0724322 0.0495 255 0 0
0.121241 -0.052759 0.0495 255 0 0
-0.022512 -0.0439456 0.0495 255 0 0
0.00586799 0.0523678 0.0495 255 0 0
-0.0142534 -0.018512 0.0495 255 0 0
0.0300546 4.34766e-05 0.0495 255 0 0
-0.0414226 0.114679 0.0495 255 0 0
0.0285374 0.0319898 0.0495 255 0 0
-0.0924889 0.122943 0.0495 255 0 0
0.0965259 0.0542611 0.0495 255 0 0
0.062174 0.0141261 0.0495 255 0 0
0.0774053 -0.0233887 0.0495 255 0 0
-0.0209263 0.0472634 0.0495 255 0 0
0.109687 0.124459 0.0495 255 0 0
0.0160721 0.120005 0.0495 255 0 0
0.107715 -0.0388654 0.0495 255 0 0
-0.00834582 0.0829118 0.0495 255 0 0
0.0826038 0.00800856 0.0495 255 0 0
0.0229979 -0.108087 0.0495 255 0 0
-0.0469974 0.0183384 0.0495 255 0 0
-0.07206 0.0428187 0.0495 255 0 0
0.114827 -0.0909688 0.0495 255 0 0
0.0093531 -0.0451659 0.0495 255 0 0
0.118648 -0.112318 0.0495 255 0 0
0.120348 0.036796 0.0495 255 0 0
-0.0394061 0.104137 0.0495 255 0 0
0.00184481 -0.116781 0.0495 255 0 0
0.00419262 -9.03223e-05 0.0495 255 0 0
-0.11105 0.0266665 0.0495 255 0 0
-0.0558778 0.0420544 0.0495 255 0 0
-0.0869388 0.0159348 0.0495 255 0 0
0.0319573 0.0141181 0.0495 255 0 0
0.0411707 -0.0886394 0.0495 255 0 0
0.0494925 -0.0390854 0.0495 255 0 0
0.0473614 0.0933917 0.0495 255 0 0
0.0810224 -0.00338958 0.0495 255 0 0
0.0793128 -0.0154114 0.0495 255 0 0
-0.00151644 -0.0388955 0.0495 255 0 0
-0.114074 -0.0629026 0.0495 255 0 0
0.0679918 0.112001 0.0495 255 0 0
0.0347388 -0.0232861 0.0495 255 0 0
0.0171306 0.0193656 0.0495 255 0 0
-0.0917816 0.096455 0.0495 255 0 0
0.0593609 0.112667 0.0495 255 0 0
-0.118396 0.101992 0.0495 255 0 0
-0.0333508 -0.0499337 0.0495 255 0 0
-0.0043306 0.057703 0.0495 255 0 0
0.0613754 0.0757427 0.0495 255 0 0
0.00391462 0.10168 0.0495 255 0 0
-0.100217 0.0230906 0.0495 255 0 0
0.0246518 -0.0940313 0.0495 255 0 0
-0.0347088 0.119474 0.0495 255 0 0
0.0420861 -0.114665 0.0495 255 0 0
0.000979812 0.0472977 0.0495 255 0 0
-0.000213673 0.0658377 0.0495 255 0 0
-0.0778236 0.0940435 0.0495 255 0 0
-0.0439926 -0.0910097 0.0495 255 0 0
0.109156 -0.0799611 0.0495 255 0 0
0.0056411 0.0653831 0.0495 255 0 0
0.0442985 -0.115177 0.0495 255 0 0
-0.038333 0.0306116 0.0495 255 0 0
0.0731097 -0.0786132 0.0495 255 0 0
0.0290387 0.0693187 0.0495 255 0 0
-0.0753572 0.0117934 0.0495 255 0 0
-0.0177244 -0.0796527 0.0495 255 0 0
0.0566552 -0.0889626 0.0495 255 0 0
-0.101043 0.0755115 0.0495 255 0 0
0.0323961 -0.0797627 0.0495 255 0 0
0.121859 0.0484784 0.0495 255 0 0
-0.0483822 -0.0702548 0.0495 255 0 0
-0.0751885 -0.107595 0.0495 255 0 0
0.028491 -0.0405888 0.0495 255 0 0
0.0958726 0.008845 0.0495 255 0 0
-0.110074 -0.0574575 0.0495 255 0 0
-0.0247938 0.091988 0.0495 255 0 0
-0.00275956 -0.0375555 0.0495 255 0 0
0.120166 0.0275963 0.0495 255 0 0
-0.0648776 -0.0843907 0.0495 255 0 0
0.063752 -0.119379 0.0495 255 0 0
-0.1077 0.0788609 0.0495 255 0 0
0.00195338 0.0403138 0.0495 255 0 0
0.0886189 -0.032233 0.0495 255 0 0
-0.0700731 -0.0387456 0.0495 255 0 0
-0.0758869 -0.078929 0.0495 255 0 0
0.0739893 -0.0823942 0.0495 255 0 0
0.0684388 -0.0655828 0.0495 255 0 0
0.0489473 -0.108597 0.0495 255 0 0
0.0605165 0.00744127 0.0495 255 0 0
0.00649496 -0.0992279 0.0495 255 0 0
-0.0401864 -0.0892097 0.0495 255 0 0
0.0937592 0.0302978 0.0495 255 0 0
0.0667113 0.0634651 0.0495 255 0 0
-0.0583101 0.0875029 0.0495 255 0 0
0.00912063 0.0505043 0.0495 255 0 0
-0.052544 0.0525666 0.0495 255 0 0
0.00915513 0.0990356 0.0495 255 0 0
0.101461 0.0904379 0.0495 255 0 0
-0.00739388 -0.0248456 0.0495 255 0 0
-0.0238542 -0.0846884 0.0495 255 0 0
-0.0961771 0.118677 0.0495 255 0 0
-0.098537 0.0214577 0.0495 255 0 0
0.065008 0.105135 0.0495 255 0 0
0.120777 -0.0908743 0.0495 255 0 0
-0.119072 0.010171 0.0495 255 0 0
0.122279 -0.0240446 0.0495 255 0 0
0.0266544 0.0340878 0.0495 255 0 0
0.0922585 0.0264678 0.0495 255 0 0
-0.0398084 -0.00301928 0.0495 255 0 0
0.0376547 0.0433301 0.0495 255 0 0
0.0541275 0.0421315 0.0495 255 0 0
-0.109227 -0.0154264 0.0495 255 0 0
-0.00589933 0.0663906 0.0495 255 0 0
0.0854582 0.0149975 0.0495 255 0 0
-0.0293011 -0.0869717 0.0495 255 0 0
-0.00867512 0.105779 0.0495 255 0 0
-0.0331403 -0.0482972 0.0495 255 0 0
0.0930261 0.0502789 0.0495 255 0 0
0.10986 0.0776266 0.0495 255 0 0
0.0625708 -0.122473 0.0495 255 0 0
-0.0560632 -0.112748 0.0495 255 0 0
-0.100845 -0.0104509 0.0495 255 0 0
-0.0763518 -0.0526731 0.0495 255 0 0
-0.0235031 -0.111353 0.0495 255 0 0
0.0240553 -0.113701 0.0495 255 0 0
-0.0955317 -0.115888 0.0495 255 0 0
0.105657 -0.0246018 0.0495 255 0 0
0.0162022 -0.00198156 0.0495 255 0 0
0.0466197 -0.0517782 0.0495 255 0 0
-0.057726 0.117803 0.0495 255 0 0
0.0103196 -0.0861242 0.0495 255 0 0
0.0322526 0.0590808 0.0495 255 0 0
0.0690349 -0.0279631 0.0495 255 0 0
0.0606161 -0.0917791 0.0495 255 0 0
0.112406 0.0266422 0.0495 255 0 0
0.041386 -0.00878429 0.0495 255 0 0
0.0178229 0.0265494 0.0495 255 0 0
0.0543999 -0.106305 0.0495 255 0 0
-0.0679665 -0.0709113 0.0495 255 0 0
0.121205 0.104525 0.0495 255 0 0
-0.0480384 0.0781955 0.0495 255 0 0
-0.0339085 -0.0548839 0.0495 255 0 0
0.0950072 0.0563882 0.0495 255 0 0
0.0557623 -0.105918 0.0495 255 0 0
-0.0898796 0.0895191 0.0495 255 0 0
0.0044264 0.0194025 0.0495 255 0 0
-0.122598 -0.0248453 0.0495 255 0 0
-0.0926095 -0.1109 0.0495 255 0 0
0.0687642 0.00486861 0.0495 255 0 0
-0.0834102 0.0771408 0.0495 255 0 0
0.09509 -0.0836299 0.0495 255 0 0
0.0424088 0.0819918 0.0495 255 0 0
0.0103768 -0.123681 0.0495 255 0 0
0.056862 -0.0551221 0.0495 255 0 0
0.0309178 0.0539598 0.0495 255 0 0
0.0178629 0.0849014 0.0495 255 0 0
-0.0813467 0.112353 0.0495 255 0 0
-0.0757345 -0.06568 0.0495 255 0 0
0.0898177 0.0243355 0.0495 255 0 0
-0.0980795 0.0517769 0.0495 255 0 0
-0.0183811 0.010338 0.0495 255 0 0
0.0764317 -0.0145889 0.0495 255 0 0
-0.0669834 -0.0632648 0.0495 255 0 0
0.00568288 0.0426591 0.0495 255 0 0
-0.018085 -0.100148 0.0495 255 0 0
0.0969202 -0.123613 0.0495 255 0 0
0.0916888 -0.0637429 0.0495 255 0 0
0.0891774 -0.0929246 0.0495 255 0 0
-0.112901 -0.0388785 0.0495 255 0 0
-0.0332569 0.0534969 0.0495 255 0 0
-0.0233306 0.105751 0.0495 255 0 0
-0.0657203 0.0665221 0.0495 255 0 0
0.0853788 -0.0426035 0.0495 255 0 0
0.105629 -0.0023606 0.0495 255 0 0
-0.0981369 -0.00494957 0.0495 255 0 0
-0.0616953 0.0959502 0.0495 255 0 0
-0.0198318 -0.0401291 0.0495 255 0 0
-0.104762 0.0943022 0.0495 255 0 0
-0.00866974 0.0683285 0.0495 255 0 0
0.0853798 -0.068678 0.0495 255 0 0
0.0664993 0.0477088 0.0495 255 0 0
0.116704 0.0503199 0.0495 255 0 0
0.0675426 -0.0730023 0.0495 255 0 0
0.029894 -0.0553727 0.0495 255 0 0
-0.0316261 0.0552723 0.0495 255 0 0
0.112379 0.0814257 0.0495 255 0 0
-0.0457731 0.118929 0.0495 255 0 0
0.0240408 0.0859442 0.0495 255 0 0
0.0708232 0.0266049 0.0495 255 0 0
-0.0995451 -0.0998365 0.0495 255 0 0
0.065441 0.0866953 0.0495 255 0 0
0.0702407 -0.0762307 0.0495 255 0 0
0.0510033 -0.0676165 0.0495 255 0 0
0.0377902 -0.106921 0.0495 255 0 0
-0.08653 -0.09914 0.0495 255 0 0
0.0902324 -0.0741474 0.0495 255 0 0
0.0925418 0.0774083 0.0495 255 0 0
0.0250015 0.0114274 0.0495 255 0 0
-0.0398586 -0.0663796 0.0495 255 0 0
-0.0999146 -0.105946 0.0495 255 0 0
0.0274038 0.0842065 0.0495 255 0 0
-0.0557825 0.104897 0.0495 255 0 0
-0.117379 0.0136025 0.0495 255 0 0
0.0233102 0.0834375 0.0495 255 0 0
-0.113484 -0.0726683 0.0495 255 0 0
0.109268 -0.0751585 0.0495 255 0 0
-0.103784 0.117389 0.0495 255 0 0
0.0188069 0.06899 0.0495 255 0 0
-0.0738201 -0.0502717 0.0495 255 0 0
-0.0474453 -0.0648987 0.0495 255 0 0
-0.0536595 -0.0850136 0.0495 255 0 0
-0.0279045 -0.109924 0.0495 255 0 0
-0.103037 -0.039665 0.0495 255 0 0
-0.106912 0.0785875 0.0495 255 0 0
0.011002 -0.0126046 0.0495 255 0 0
0.0180248 -0.0924053 0.0495 255 0 0
-0.062556 -0.0903365 0.0495 255 0 0
-0.0588599 -0.0327036 0.0495 255 0 0
-0.0372182 -0.0835859 0.0495 255 0 0
-0.065433 0.0680648 0.0495 255 0 0
-0.0378771 -0.0185567 0.0495 255 0 0
0.0856421 -0.121992 0.0495 255 0 0
-0.0549685 -0.0164791 0.0495 255 0 0
0.00753651 0.0955166 0.0495 255 0 0
-0.0493149 -0.0591438 0.0495 255 0 0
-0.000855104 -0.057597 0.0495 255 0 0
-0.104646 -0.0376205 0.0495 255 0 0
-0.0724362 0.0939067 0.0495 255 0 0
0.09938 0.0528293 0.0495 255 0 0
-0.121273 -0.0732142 0.0495 255 0 0
-0.0602778 -0.117424 0.0495 255 0 0
-0.0822145 0.0871705 0.0495 255 0 0
-0.100736 0.0484307 0.0495 255 0 0
0.0902475 -0.0932031 0.0495 255 0 0
-0.0200454 0.049546 0.0495 255 0 0
-0.0160921 -0.0295293 0.0495 255 0 0
0.0362909 0.0221205 0.0495 255 0 0
0.0143373 0.00133208 0.0495 255 0 0
-0.0491048 0.0635202 0.0495 255 0 0
-0.0390414 -0.108315 0.0495 255 0 0
0.012787 0.00962091 0.0495 255 0 0
0.0084168 0.0864282 0.0495 255 0 0
0.11183 0.103764 0.0495 255 0 0
-0.0297706 0.0436603 0.0495 255 0 0
-0.042149 0.122449 0.0495 255 0 0
0.0507128 0.0983001 0.0495 255 0 0
-0.0128888 0.0771771 0.0495 255 0 0
-0.0931776 0.017215 0.0495 255 0 0
-0.0862549 0.0524065 0.0495 255 0 0
-0.0711206 0.0658254 0.0495 255 0 0
0.0570871 -0.110409 0.0495 255 0 0
0.0857562 0.10684 0.0495 255 0 0
0.00784167 -0.0781925 0.0495 255 0 0
-0.118973 0.0374345 0.0495 255 0 0
0.081369 0.112237 0.0495 255 0 0
-0.0175391 0.00498089 0.0495 255 0 0
0.0915873 0.0595077 0.0495 255 0 0
0.00419006 0.0470944 0.0495 255 0 0
-0.114662 0.11536 0.0495 255 0 0
-0.0285718 -0.00510005 0.0495 255 0 0
-0.0373242 -0.0560586 0.0495 255 0 0
-0.0979277 0.0343849 0.0495 255 0 0
-0.0805918 -0.00915857 0.0495 255 0 0
0.109551 0.00407646 0.0495 255 0 0
-0.0970649 -0.101959 0.0495 255 0 0
-0.0673501 0.00636835 0.0495 255 0 0
0.0495427 -0.0137479 0.0495 255 0 0
-0.104211 0.0253623 0.0495 255 0 0
-0.0332541 0.0595561 0.0495 255 0 0
0.0505204 -0.102293 0.0495 255 0 0
0.0691744 -0.0447376 0.0495 255 0 0
-0.0172894 -0.0473946 0.0495 255 0 0
-0.0687815 0.111442 0.0495 255 0 0
-0.0166897 0.102303 0.0495 255 0 0
0.094335 0.0148651 0.0495 255 0 0
0.0969195 -0.10533 0.0495 255 0 0
0.0793414 0.122518 0.0495 255 0 0
0.0842606 -0.0135874 0.0495 255 0 0
0.115946 0.0741653 0.0495 255 0 0
-0.102566 -0.10889 0.0495 255 0 0
0.0118896 -0.0632313 0.0495 255 0 0
0.00972791 0.00509092 0.0495 255 0 0
-0.0313078 0.0749318 0.0495 255 0 0
-0.100483 -0.0164202 0.0495 255 0 0
0.0813454 -0.119232 0.0495 255 0 0
0.0666306 0.0269947 0.0495 255 0 0
0.117663 -0.122124 0.0495 255 0 0
-0.0635601 -0.0615918 0.0495 255 0 0
-0.0120473 0.0388302 0.0495 255 0 0
0.0501162 0.092638 0.0495 255 0 0
0.110319 0.0401276 0.0495 255 0 0
-0.116825 0.0709373 0.0495 255 0 0
-0.122577 0.00701872 0.0495 255 0 0
0.0951009 -0.0743267 0.0495 255 0 0
-0.00329401 0.118106 0.0495 255 0 0
-0.0373623 -0.0279479 0.0495 255 0 0
0.00351034 -0.0673756 0.0495 255 0 0
-0.0328449 0.02738 0.0495 255 0 0
0.112349 -0.0410759 0.0495 255 0 0
0.0251802 0.105603 0.0495 255 0 0
0.0208736 0.113593 0.0495 255 0 0
-0.0547073 -0.0105807 0.0495 255 0 0
0.0168598 0.0826138 0.0495 255 0 0
-0.0286072 -0.0827499 0.0495 255 0 0
-0.115577 -0.0954777 0.0495 255 0 0
-0.110616 0.0410616 0.0495 255 0 0
0.0978248 -0.0979814 0.0495 255 0 0
-0.0839752 0.0192037 0.0495 255 0 0
-0.112532 0.0810123 0.0495 255 0 0
-0.0937187 -0.0759037 0.0495 255 0 0
0.035711 -0.00743994 0.0495 255 0 0
-0.0585158 0.0428605 0.0495 255 0 0
0.105777 0.0890164 0.0495 255 0 0
0.0691831 0.027997 0.0495 255 0 0
-0.0991857 0.0579145 0.0495 255 0 0
-0.0402518 0.0283505 0.0495 255 0 0
0.050202 -0.0476878 0.0495 255 0 0
0.016878 0.00343311 0.0495 255 0 0
0.0637332 0.0621366 0.0495 255 0 0
0.0935582 -0.0229164 0.0495 255 0 0
-0.0733032 -0.0148139 0.0495 255 0 0
-0.110928 0.111371 0.0495 255 0 0
-0.055221 -0.0579311 0.0495 255 0 0
-0.0160464 -0.0136986 0.0495 255 0 0
-0.102482 0.100841 0.0495 255 0 0
-0.0215865 -0.0395347 0.0495 255 0 0
-0.0940725 0.095011 0.0495 255 0 0
-0.0292555 -0.0783733 0.0495 255 0 0
0.0642981 0.0606965 0.0495 255 0 0
0.110042 0.0744076 0.0495 255 0 0
-0.00428386 -0.0795491 0.0495 255 0 0
-0.0985837 0.0472089 0.0495 255 0 0
0.0205409 -0.00228162 0.0495 255 0 0
-0.0919298 -0.00448477 0.0495 255 0 0
-0.1245 -0.0286342 0.0133853 255 0 0
-0.1245 0.0703977 0.028453 255 0 0
-0.1245 -0.0615054 0.035098 255 0 0
-0.1245 -0.00882384 0.0313476 255 0 0
-0.1245 0.0137982 0.0358826 255 0 0
-0.1245 0.0925516 0.00747111 255 0 0
-0.1245 0.0108447 0.0242782 255 0 0
-0.1245 -0.0779094 0.0289394 255 0 0
-0.1245 0.0258589 0.0374436 255 0 0
-0.1245 -0.0242476 0.00410135 255 0 0
-0.1245 -0.0625205 0.04666 255 0 0
-0.1245 0.0935125 0.0278098 255 0 0
-0.1245 -0.00973139 0.012324 255 0 0
-0.1245 0.0914312 0.0131031 255 0 0
-0.1245 0.00808474 0.0429554 255 0 0
-0.1245 -0.0241485 0.0298793 255 0 0
-0.1245 -0.0591644 0.00664805 255 0 0
-0.1245 0.0393106 0.0393312 255 0 0
-0.1245 -0.0592887 0.00466983 255 0 0
-0.1245 0.0454637 0.0488934 255 0 0
-0.1245 -0.104933 0.0204701 255 0 0
-0.1245 -0.0372239 0.0476542 255 0 0
-0.1245 -0.0157496 0.0103331 255 0 0
-0.1245 0.10135 0.0187546 255 0 0
-0.1245 0.10526 0.0185887 255 0 0
-0.1245 0.0845686 0.0150845 255 0 0
-0.1245 0.0272601 0.0030632 255 0 0
-0.1245 -0.0419525 0.0154437 255 0 0
-0.1245 -0.0906633 0.00522775 255 0 0
-0.1245 0.0311836 0.0271482 255 0 0
-0.1245 0.0756458 0.000535332 255 0 0
-0.1245 0.0625404 0.00763969 255 0 0
-0.1245 0.112648 0.00914739 255 0 0
-0.1245 -0.0324223 0.00911432 255 0 0
-0.1245 -0.0323268 0.00759865 255 0 0
-0.1245 -0.0345555 0.0461282 255 0 0
-0.1245 0.0243842 0.0312101 255 0 0
-0.1245 -0.0832059 0.030063 255 0 0
-0.1245 -0.0143306 0.0243625 255 0 0
-0.1245 0.113557 0.0201999 255 0 0
-0.1245 0.101469 0.0459205 255 0 0
-0.1245 0.0512849 0.0440627 255 0 0
-0.1245 0.0765807 0.0144726 255 0 0
-0.1245 0.102873 0.00776492 255 0 0
-0.1245 0.0835343 0.0115324 255 0 0
-0.1245 -0.0660869 0.0131927 255 0 0
-0.1245 0.0758083 0.0135824 255 0 0
-0.1245 0.0619178 0.0267689 255 0 0
-0.1245 -0.0104265 0.0053002 255 0 0
-0.1245 -0.0246479 0.00465189 255 0 0
-0.1245 0.0708166 0.0421336 255 0 0
-0.1245 -0.0673206 0.0315585 255 0 0
-0.1245 0.0891464 0.00835278 255 0 0
-0.1245 0.111299 0.00951021 255 0 0
-0.1245 -0.112661 0.00603688 255 0 0
-0.1245 0.0807513 0.0230903 255 0 0
-0.1245 -0.0686213 0.0112285 255 0 0
-0.1245 0.0738806 0.00653642 255 0 0
-0.1245 -0.101548 0.0138458 255 0 0
-0.1245 0.0402783 0.0361825 255 0 0
-0.1245 -0.082794 0.0207487 255 0 0
-0.1245 -0.0512179 0.00848979 255 0 0
-0.1245 0.0280156 0.0224026 255 0 0
-0.1245 -0.0452044 0.0300044 255 0 0
-0.1245 0.0503968 0.0407943 255 0 0
-0.1245 -0.0636903 0.0411919 255 0 0
-0.1245 -0.054612 0.0028874 255 0 0
-0.1245 -0.0989903 0.0293622 255 0 0
-0.1245 0.0312396 0.045637 255 0 0
-0.1245 -0.0445825 0.00731774 255 0 0
-0.1245 0.0537901 0.0323011 255 0 0
-0.1245 -0.0104037 0.0203305 255 0 0
-0.1245 0.0990583 0.0342019 255 0 0
-0.1245 -0.0582478 0.0377646 255 0 0
-0.1245 0.115546 0.00392529 255 0 0
-0.1245 0.00416338 0.015684 255 0 0
-0.1245 -0.0682727 0.0242745 255 0 0
-0.1245 -0.0167248 0.0163104 255 0 0
-0.1245 -0.109595 0.0210908 255 0 0
-0.1245 0.0569473 0.00496843 255 0 0
-0.1245 0.0329965 0.04427 255 0 0
-0.1245 -0.0533293 0.0184888 255 0 0
-0.1245 0.0146539 0.0142867 255 0 0
-0.1245 -0.0748415 0.0173393 255 0 0
-0.1245 -0.034992 0.000920269 255 0 0
-0.1245 0.0818 0.0411931 255 0 0
-0.1245 0.0719792 0.00633855 255 0 0
-0.1245 -0.0790933 0.0470536 255 0 0
-0.1245 -0.0306205 0.0357133 255 0 0
-0.1245 0.0310751 0.0228263 255 0 0
-0.1245 -0.0126452 0.0228937 255 0 0
-0.1245 0.0721368 0.0247655 255 0 0
-0.1245 0.0832714 0.0225856 255 0 0
-0.1245 0.0405806 0.0324274 255 0 0
-0.1245 0.0567948 0.00218302 255 0 0
-0.1245 0.0115559 0.0415846 255 0 0
-0.1245 0.0590562 0.0128158 255 0 0
-0.1245 0.0100648 0.0100371 255 0 0
-0.1245 -0.0157881 0.0163325 255 0 0
-0.1245 -0.0436922 0.0460214 255 0 0
-0.1245 -0.0768032 0.0319814 255 0 0
-0.1245 -0.0442515 0.0472194 255 0 0
-0.1245 0.107913 0.0443519 255 0 0
-0.1245 0.114306 0.045859 255 0 0
-0.1245 0.0686275 0.0229736 255 0 0
-0.1245 -0.00219113 0.019546 255 0 0
-0.1245 0.105269 0.0193302 255 0 0
-0.1245 0.0313393 0.0476567 255 0 0
-0.1245 0.10952 0.006172 255 0 0
-0.1245 0.0893009 0.00946225 255 0 0
-0.1245 0.0277096 0.0341311 255 0 0
-0.1245 0.088234 0.0223728 255 0 0
-0.1245 -0.0448199 0.0446874 255 0 0
-0.1245 -0.102688 0.0287778 255 0 0
-0.1245 -0.00343276 0.0358827 255 0 0
-0.1245 -0.0342603 0.0130036 255 0 0
-0.1245 -0.0229733 0.0228877 255 0 0
-0.1245 -0.104339 0.0247612 255 0 0
-0.1245 -0.074544 0.0452989 255 0 0
-0.1245 -0.0543476 0.0196533 255 0 0
-0.1245 0.0523343 0.0298587 255 0 0
-0.1245 0.0220082 0.0430542 255 0 0
0.1245 0.118469 0.0149912 255 0 0
0.1245 -0.0506257 0.0442835 255 0 0
0.1245 0.0103575 0.0247979 255 0 0
0.1245 0.00308839 0.0486125 255 0 0
0.1245 0.0117297 0.0356969 255 0 0
0.1245 -0.0148578 0.0354437 255 0 0
0.1245 0.0649746 0.0381427 255 0 0
0.1245 0.0198731 0.0367847 255 0 0
0.1245 0.0469421 0.0152208 255 0 0
0.1245 0.0215149 0.0292395 255 0 0
0.1245 -0.0688804 0.00109997 255 0 0
0.1245 -0.0252996 0.0388698 255 0 0
0.1245 0.0488146 0.0295746 255 0 0
0.1245 0.0883346 0.0402517 255 0 0
0.1245 0.0734373 0.0489949 255 0 0
0.1245 0.102117 0.0466737 255 0 0
0.1245 -0.0433124 0.0034019 255 0 0
0.1245 -0.124345 0.0474049 255 0 0
0.1245 0.0409126 0.0391833 255 0 0
0.1245 -0.0993556 0.017014 255 0 0
0.1245 0.10663 0.0355819 255 0 0
0.1245 0.00701285 0.0133537 255 0 0
0.1245 -0.0370048 0.0269902 255 0 0
0.1245 0.0415187 0.00257372 255 0 0
0.1245 -0.116347 0.0399891 255 0 0
0.1245 0.100901 0.0292278 255 0 0
0.1245 -0.106386 0.0468236 255 0 0
0.1245 0.0240428 0.0381282 255 0 0
0.1245 -0.070038 0.000745366 255 0 0
0.1245 0.0261471 0.0215217 255 0 0
0.1245 -0.106658 0.0255083 255 0 0
0.1245 0.0190494 0.0233691 255 0 0
0.1245 0.0771868 0.00675548 255 0 0
0.1245 0.0726802 0.0130139 255 0 0
0.1245 0.110009 0.0416945 255 0 0
0.1245 -0.0754094 0.0192753 255 0 0
0.1245 0.096519 0.00145716 255 0 0
0.1245 -0.013021 0.0279631 255 0 0
0.1245 0.0736306 0.00977528 255 0 0
0.1245 -0.123084 0.0198472 255 0 0
0.1245 -0.0735374 0.0465378 255 0 0
0.1245 0.0220877 0.0164576 255 0 0
0.1245 -0.0066579 0.0189931 255 0 0
0.1245 -0.0881764 0.0132929 255 0 0
0.1245 -0.0577213 0.0471991 255 0 0
0.1245 0.0506963 0.0323948 255 0 0
0.1245 0.0283541 0.0279271 255 0 0
0.1245 -0.0331785 0.0191461 255 0 0
0.1245 -0.0478659 0.0324847 255 0 0
0.1245 0.114898 0.0435859 255 0 0
0.1245 0.0767402 0.00743823 255 0 0
0.1245 -0.0725142 0.0472781 255 0 0
0.1245 0.0395565 0.0132822 255 0 0
0.1245 -0.124015 0.00400909 255 0 0
0.1245 -0.0270346 0.0455903 255 0 0
0.1245 0.0155951 0.0194066 255 0 0
0.1245 -0.0693901 0.000500084 255 0 0
0.1245 -0.0765175 0.0462445 255 0 0
0.1245 -0.0521148 0.0365338 255 0 0
0.1245 0.0451828 0.0263994 255 0 0
0.1245 0.121164 0.0375774 255 0 0
0.1245 0.00956709 0.0420865 255 0 0
0.1245 -0.0310352 0.0196689 255 0 0
0.1245 0.122661 0.00829466 255 0 0
0.1245 -0.0915909 0.0177475 255 0 0
0.1245 0.0917903 0.0221325 255 0 0
0.1245 0.081527 0.0339525 255 0 0
0.1245 0.113461 0.0423235 255 0 0
0.1245 0.0628344 0.0181368 255 0 0
0.1245 -0.0193095 0.0391876 255 0 0
0.1245 0.0935285 0.0166657 255 0 0
0.1245 0.0440658 0.027714 255 0 0
0.1245 -0.115564 0.0425316 255 0 0
0.1245 0.112397 0.0379054 255 0 0
0.1245 0.0600967 0.0305087 255 0 0
0.1245 -0.0717324 0.0208587 255 0 0
0.1245 -0.115395 0.000962669 255 0 0
0.1245 0.0460169 0.0221167 255 0 0
0.1245 0.0889634 0.0379503 255 0 0
0.1245 -0.0751285 0.0136844 255 0 0
0.1245 -0.0389509 0.0466635 255 0 0
0.1245 0.0208277 0.0422029 255 0 0
0.1245 0.0931131 0.007456 255 0 0
0.1245 -0.0831951 0.0377002 255 0 0
0.1245 0.00892135 0.00758298 255 0 0
0.1245 0.00228163 0.0285449 255 0 0
0.1245 -0.123552 0.0269477 255 0 0
0.1245 0.0296658 0.00334502 255 0 0
0.1245 0.0912107 0.0145394 255 0 0
0.1245 0.00472451 0.01956 255 0 0
0.1245 -0.0206927 0.0361878 255 0 0
0.1245 0.0174939 0.00204003 255 0 0
0.1245 0.0327454 0.0121331 255 0 0
0.1245 -0.0889439 0.043774 255 0 0
0.1245 0.0955562 0.0323236 255 0 0
0.1245 -0.120484 0.0405508 255 0 0
0.1245 -0.0507061 0.000571941 255 0 0
0.1245 -0.045041 0.00885664 255 0 0
0.1245 0.0378971 0.0093189 255 0 0
0.1245 0.063517 0.0188959 255 0 0
0.1245 -0.0534417 0.0121689 255 0 0
0.1245 -0.0873684 0.0419221 255 0 0
0.1245 -0.119402 0.0124812 255 0 0
0.1245 0.102385 0.0176943 255 0 0
0.1245 -0.0342083 0.0380111 255 0 0
0.1245 0.0690325 0.0491806 255 0 0
0.1245 -0.0704575 0.0020925 255 0 0
0.1245 0.0433065 0.0224253 255 0 0
0.1245 -0.0888498 0.00604393 255 0 0
0.1245 -0.0468109 0.0126965 255 0 0
0.1245 -0.0781183 0.0368551 255 0 0
0.1245 0.0418596 0.00625952 255 0 0
0.1245 -0.03512 0.00772869 255 0 0
0.1245 0.0710052 0.0294336 255 0 0
0.1245 0.061592 0.0274067 255 0 0
0.1245 -0.0757925 0.0339456 255 0 0
0.1245 -0.0557273 0.0176793 255 0 0
0.1245 -0.067591 0.0292597 255 0 0
0.1245 0.0432912 0.0157016 255 0 0
0.1245 -0.0161119 0.0227935 255 0 0
0.1245 0.0926067 0.022228 255 0 0
0.1245 -0.0784178 0.0345808 255 0 0
0.0181396 0.1245 0.0248372 255 0 0
-0.0554395 0.1245 0.0233798 255 0 0
0.0448909 0.1245 0.036807 255 0 0
0.0494661 0.1245 0.0361849 255 0 0
0.0486217 0.1245 0.00780355 255 0 0
0.100622 0.1245 0.0231437 255 0 0
0.116031 0.1245 0.00138363 255 0 0
0.0291748 0.1245 0.0454774 255 0 0
0.024826 0.1245 0.0246201 255 0 0
0.0657243 0.1245 0.00723527 255 0 0
-0.0723882 0.1245 0.0226137 255 0 0
-0.057947 0.1245 0.0362967 255 0 0
-0.0418499 0.1245 0.0172174 255 0 0
0.117208 0.1245 0.0484274 255 0 0
-0.0257796 0.1245 0.0353784 255 0 0
0.0336368 0.1245 0.00761391 255 0 0
-0.0126935 0.1245 0.00456215 255 0 0
-0.120599 0.1245 0.00569544 255 0 0
0.104446 0.1245 0.0121281 255 0 0
0.0869306 0.1245 0.0369797 255 0 0
0.0419975 0.1245 0.0190552 255 0 0
0.0264251 0.1245 0.0377173 255 0 0
0.0278607 0.1245 0.00221133 255 0 0
0.0133046 0.1245 0.0318858 255 0 0
0.0991381 0.1245 0.0346709 255 0 0
-0.116754 0.1245 0.0449731 255 0 0
0.0306931 0.1245 0.0214142 255 0 0
-0.0894826 0.1245 0.0300766 255 0 0
-0.0755704 0.1245 0.0257397 255 0 0
0.0665387 0.1245 0.0143785 255 0 0
-0.102707 0.1245 0.00118595 255 0 0
-0.0378034 0.1245 0.0272571 255 0 0
0.021282 0.1245 0.0489248 255 0 0
0.0046645 0.1245 0.0289947 255 0 0
0.105275 0.1245 0.0232619 255 0 0
-0.0825883 0.1245 0.0467624 255 0 0
0.0355285 0.1245 0.0192455 255 0 0
-0.0932568 0.1245 0.00311776 255 0 0
-0.0366396 0.1245 0.00291089 255 0 0
-0.0803205 0.1245 0.0461006 255 0 0
-0.0762646 0.1245 0.0454989 255 0 0
0.0940661 0.1245 0.0298737 255 0 0
-0.0291754 0.1245 0.0223836 255 0 0
0.000794504 0.1245 0.0379084 255 0 0
0.00815288 0.1245 0.015454 255 0 0
-0.0820778 0.1245 0.00407802 255 0 0
-0.107368 0.1245 0.0227863 255 0 0
0.0356942 0.1245 0.0406303 255 0 0
-0.0851483 0.1245 0.00593044 255 0 0
0.110817 0.1245 0.0139853 255 0 0
0.115916 0.1245 0.026495 255 0 0
0.0490922 0.1245 0.0359093 255 0 0
-0.0420449 0.1245 0.0211251 255 0 0
-0.0564285 0.1245 0.0123876 255 0 0
0.0860206 0.1245 0.0302553 255 0 0
0.0833973 0.1245 0.0417738 255 0 0
0.0961935 0.1245 0.011416 255 0 0
0.10391 0.1245 0.013218 255 0 0
0.0523591 0.1245 0.0435381 255 0 0
-0.111698 0.1245 0.0139073 255 0 0
-0.0576942 0.1245 0.0436817 255 0 0
0.0354283 0.1245 0.0318566 255 0 0
-0.116881 0.1245 0.0468165 255 0 0
0.0504587 0.1245 0.0152324 255 0 0
0.038302 0.1245 0.0346935 255 0 0
-0.0322533 0.1245 0.0104656 255 0 0
-0.0719325 0.1245 0.0304436 255 0 0
0.00992663 0.1245 0.0301597 255 0 0
-0.059111 0.1245 0.0242075 255 0 0
-0.113833 0.1245 0.00110431 255 0 0
0.0100469 0.1245 0.037255 255 0 0
-0.102512 0.1245 0.0389453 255 0 0
-0.0402838 0.1245 0.0447896 255 0 0
-0.00444696 0.1245 0.0375065 255 0 0
-0.0632282 0.1245 0.0158591 255 0 0
0.0366395 0.1245 0.0417634 255 0 0
0.0305934 0.1245 0.0139597 255 0 0
-0.0222859 0.1245 0.0182776 255 0 0
0.120664 0.1245 0.0324669 255 0 0
-0.0250401 0.1245 0.0296137 255 0 0
0.0521336 0.1245 0.0359853 255 0 0
0.0156016 0.1245 0.0195836 255 0 0
-0.122618 0.1245 0.00529613 255 0 0
-0.104959 0.1245 0.013006 255 0 0
0.106034 0.1245 0.0123383 255 0 0
-0.0780198 0.1245 0.0189182 255 0 0
-0.0945798 0.1245 0.0423146 255 0 0
-0.120925 0.1245 0.0242966 255 0 0
0.0760227 0.1245 0.0333674 255 0 0
0.0264329 0.1245 0.0438737 255 0 0
0.0596186 0.1245 0.0119892 255 0 0
-0.0151073 0.1245 0.0280113 255 0 0
-0.0290284 0.1245 0.0320313 255 0 0
0.044288 0.1245 0.0408463 255 0 0
0.0351479 0.1245 0.0286135 255 0 0
