ply
format ascii 1.0
comment Created by Open3D
element vertex 586
property double x
property double y
property double z
property uchar red
property uchar green
property uchar blue
end_header
-0.011815 0.0162074 0.0995 26 204 26
0.0145326 -0.027618 0.0995 26 204 26
-0.0125334 0.00997968 0.0995 26 204 26
0.0274845 -0.0179031 0.0995 26 204 26
0.0195376 -0.0203174 0.0995 26 204 26
0.00923182 -0.0147123 0.0995 26 204 26
0.0128862 -0.00691956 0.0995 26 204 26
-0.0168471 0.00672835 0.0995 26 204 26
0.000623862 -0.0261537 0.0995 26 204 26
5.28002e-05 -0.0373317 0.0995 26 204 26
-0.0131685 -0.0264956 0.0995 26 204 26
0.018534 0.00799432 0.0995 26 204 26
0.0108381 -0.0176005 0.0995 26 204 26
0.00791232 -0.0226787 0.0995 26 204 26
0.035299 -0.0160041 0.0995 26 204 26
0.0328136 -0.0147055 0.0995 26 204 26
0.0164596 0.0337293 0.0995 26 204 26
0.0129125 0.0243606 0.0995 26 204 26
0.00656091 0.0149937 0.0995 26 204 26
-0.0062676 -0.0113799 0.0995 26 204 26
0.000231549 0.0350878 0.0995 26 204 26
-0.0304423 0.00540559 0.0995 26 204 26
-0.00343508 0.0255277 0.0995 26 204 26
0.025998 0.00898768 0.0995 26 204 26
0.0232593 0.00680631 0.0995 26 204 26
-0.00102947 -0.0270752 0.0995 26 204 26
0.0215552 -0.0295396 0.0995 26 204 26
0.0297965 0.00405018 0.0995 26 204 26
-0.00737544 -0.0195921 0.0995 26 204 26
-0.00312673 -0.0223492 0.0995 26 204 26
-0.0314258 -0.0174754 0.0995 26 204 26
-0.0164045 0.0129992 0.0995 26 204 26
0.0249772 0.0186123 0.0995 26 204 26
-0.00486837 0.0312033 0.0995 26 204 26
0.0273214 0.0055886 0.0995 26 204 26
0.0301366 -0.0251364 0.0995 26 204 26
0.015585 -0.0134515 0.0995 26 204 26
0.0206933 0.0113719 0.0995 26 204 26
0.00778755 -0.0106715 0.0995 26 204 26
-0.00267979 -0.0346575 0.0995 26 204 26
0.0213666 -0.0258597 0.0995 26 204 26
-0.00945282 0.0224042 0.0995 26 204 26
0.0200493 -0.00349076 0.0995 26 204 26
-0.0171261 0.0220407 0.0995 26 204 26
-0.00819339 -0.00445882 0.0995 26 204 26
-0.0133199 0.0220584 0.0995 26 204 26
0.00698114 -0.0227581 0.0995 26 204 26
-0.013209 0.0244798 -0.0995 26 204 26
-0.0328141 -0.0155712 -0.0995 26 204 26
-0.00254935 -0.0379153 -0.0995 26 204 26
-0.00990016 -0.0210498 -0.0995 26 204 26
0.0216473 0.0307841 -0.0995 26 204 26
-0.0126789 0.00988417 -0.0995 26 204 26
0.0219885 0.00549249 -0.0995 26 204 26
0.0149259 0.00289826 -0.0995 26 204 26
0.0346625 -0.0137102 -0.0995 26 204 26
0.00533371 0.0308262 -0.0995 26 204 26
0.0157867 -0.0359042 -0.0995 26 204 26
0.00280284 -0.00761176 -0.0995 26 204 26
0.0240924 0.00247838 -0.0995 26 204 26
-0.0157452 0.0160015 -0.0995 26 204 26
-0.022613 0.00645815 -0.0995 26 204 26
0.0300533 -0.00970253 -0.0995 26 204 26
0.0176877 -0.0174283 -0.0995 26 204 26
-0.0141851 -0.0317993 -0.0995 26 204 26
-0.0307206 0.0200578 -0.0995 26 204 26
-0.0336057 -0.000745455 -0.0995 26 204 26
-0.00815002 -0.014285 -0.0995 26 204 26
0.023238 0.0056482 -0.0995 26 204 26
0.014289 0.0329154 -0.0995 26 204 26
0.0179872 0.0109956 -0.0995 26 204 26
0.0148312 -0.0193904 -0.0995 26 204 26
-0.000305993 0.00346526 -0.0995 26 204 26
-0.0124992 -0.0285345 -0.0995 26 204 26
0.0164145 -0.0316135 -0.0995 26 204 26
0.00867285 -0.0363764 -0.0995 26 204 26
-0.00662172 0.0380982 -0.0995 26 204 26
0.0064266 0.0192053 -0.0995 26 204 26
0.0196299 0.00144721 -0.0995 26 204 26
0.0196313 -0.0102676 -0.0995 26 204 26
-0.0266262 0.0034935 -0.0995 26 204 26
-0.00872321 0.0356394 -0.0995 26 204 26
-0.015342 0.0234347 -0.0995 26 204 26
-0.00492784 -0.00682273 -0.0995 26 204 26
0.0247128 0.0287275 -0.0995 26 204 26
-0.0358334 0.0122213 -0.0995 26 204 26
-0.019161 0.0244102 -0.0995 26 204 26
-0.0181339 0.0272478 -0.0995 26 204 26
-0.0027965 0.0077921 -0.0995 26 204 26
0.0199245 -0.00834742 -0.0995 26 204 26
0.00709062 0.0291687 -0.0995 26 204 26
0.0044868 0.00877569 -0.0995 26 204 26
-0.0196426 -0.00710085 -0.0995 26 204 26
0.0231442 -0.0320093 -0.00701738 26 204 26
0.036183 0.0158442 -0.0756193 26 204 26
0.0374943 -0.012427 -0.0325147 26 204 26
-0.0188203 0.0347282 0.057943 26 204 26
-0.00535089 0.0391359 -0.0154136 26 204 26
0.0264084 0.0293742 0.00928888 26 204 26
0.00696669 -0.0388808 -0.073068 26 204 26
-0.00140372 -0.0394751 -0.0258481 26 204 26
0.0203663 -0.0338447 0.0464952 26 204 26
0.0292855 -0.0265068 -0.0605525 26 204 26
0.00845543 -0.0385844 0.0112668 26 204 26
0.022108 0.0327335 -0.0202501 26 204 26
0.0362712 -0.0156413 -0.0488555 26 204 26
-0.000247592 -0.0394992 -0.0114913 26 204 26
0.020722 -0.0336281 -0.0164924 26 204 26
0.0337839 0.0204671 -0.0399222 26 204 26
-0.00386274 -0.0393107 -0.0550334 26 204 26
-0.0388052 -0.00737584 0.0926292 26 204 26
-0.00342165 -0.0393515 -0.0614032 26 204 26
0.000208369 0.0394995 0.0385823 26 204 26
-0.013297 0.0371946 0.0466966 26 204 26
0.0336396 0.0207033 -0.0751861 26 204 26
-0.0322066 -0.0228689 0.0460935 26 204 26
-0.0362378 -0.0157185 -0.0559503 26 204 26
-0.037962 0.0109149 -0.0547475 26 204 26
-0.0361546 -0.0159089 0.0150592 26 204 26
-0.00488302 -0.039197 -0.0812239 26 204 26
0.030859 -0.0246571 -0.0537612 26 204 26
-0.0285558 0.0272913 -0.0461412 26 204 26
0.00152373 -0.0394706 -0.0753467 26 204 26
-0.0394089 0.00268061 -0.0605261 26 204 26
-0.0393143 0.00382553 0.0880913 26 204 26
-0.015365 0.0363891 -0.0182415 26 204 26
-0.0186359 0.0348275 0.0511792 26 204 26
0.033991 -0.0201211 -0.0275012 26 204 26
0.0389754 0.00641602 0.0150778 26 204 26
0.0394454 -0.00207703 0.0810113 26 204 26
0.00404209 0.0392926 -0.0885729 26 204 26
0.00528722 -0.0391445 0.0674561 26 204 26
0.0388238 0.00727742 0.0685967 26 204 26
-0.0331595 -0.0214639 0.0321056 26 204 26
0.0126703 -0.0374127 -0.0714204 26 204 26
0.0369314 0.0140115 -0.0302875 26 204 26
-0.0259173 -0.0298084 0.0668169 26 204 26
0.0228164 -0.0322438 -0.0823905 26 204 26
-0.0328 -0.0220093 -0.0903606 26 204 26
-0.00601888 0.0390387 -0.00987295 26 204 26
0.0116293 0.0377493 0.0888945 26 204 26
-0.0102452 -0.0381482 -0.0789708 26 204 26
-0.030804 -0.0247258 0.017704 26 204 26
-0.0358355 0.0166153 0.0514313 26 204 26
0.0173549 0.0354832 0.040497 26 204 26
-0.00168586 0.039464 0.021908 26 204 26
-0.0371464 -0.0134312 0.0236803 26 204 26
0.0357882 0.0167168 0.0194572 26 204 26
-0.0350919 0.018133 -0.0572373 26 204 26
0.0385421 0.00864626 0.000810132 26 204 26
-0.00696974 -0.0388802 -0.00803654 26 204 26
0.0338582 0.0203438 0.075003 26 204 26
-0.0347444 -0.0187904 0.0751474 26 204 26
0.0197261 -0.0342218 -0.0247705 26 204 26
0.0328464 0.0219401 -0.0511417 26 204 26
0.0257611 0.0299435 -0.0631769 26 204 26
0.00736686 0.038807 0.0790755 26 204 26
-0.0149359 0.0365673 -0.081982 26 204 26
-0.0294674 0.0263044 0.0103742 26 204 26
-0.0221235 0.0327231 0.0600946 26 204 26
-0.0152435 -0.0364402 0.0462217 26 204 26
0.0308415 0.024679 -0.0444427 26 204 26
-0.0225781 0.0324111 -0.00603355 26 204 26
-0.025922 0.0298043 -0.082496 26 204 26
-0.00316036 -0.0393734 0.00520327 26 204 26
0.0245631 0.0309339 0.090248 26 204 26
-0.00683667 -0.0389039 0.0391843 26 204 26
0.0388101 0.00735015 -0.028061 26 204 26
0.0135379 -0.0371076 0.0235666 26 204 26
-0.0312186 0.0242001 -0.00865293 26 204 26
-0.0204245 0.0338096 -0.00827169 26 204 26
0.0394997 -0.00014618 0.0209009 26 204 26
-0.039204 0.00482681 -0.0886543 26 204 26
0.0392591 0.004356 0.0833348 26 204 26
0.0390891 0.00568242 0.0580708 26 204 26
0.0246537 -0.0308617 0.0947318 26 204 26
-0.0318189 0.0234053 -0.0290088 26 204 26
-0.0214312 0.0331806 -0.0974566 26 204 26
0.0283826 0.0274714 -0.0518463 26 204 26
0.0333087 0.0212315 0.0490756 26 204 26
-0.0138067 0.0370084 0.0383854 26 204 26
0.0386093 -0.0083412 -0.0783583 26 204 26
-0.0298935 0.0258191 -0.00315836 26 204 26
-0.0379843 0.0108371 -0.0567596 26 204 26
-0.0186314 -0.0348299 -0.0832297 26 204 26
0.0108 0.0379949 0.0659153 26 204 26
-0.0149002 -0.0365819 -0.0608078 26 204 26
0.0286764 -0.0271646 0.0777223 26 204 26
-0.0271846 -0.0286574 0.0191481 26 204 26
0.0367281 0.0145361 0.00382978 26 204 26
0.0392532 0.00440871 0.0442338 26 204 26
-0.0210777 -0.0334063 0.0737613 26 204 26
-0.0389794 0.00639182 0.0331731 26 204 26
0.00684678 0.0389021 0.0925276 26 204 26
-0.0369305 0.0140138 0.0310024 26 204 26
0.0357766 -0.0167418 0.0830272 26 204 26
-0.0258472 -0.0298693 -0.027281 26 204 26
-0.0280493 -0.0278116 -0.0392021 26 204 26
-0.037491 0.0124368 0.0641546 26 204 26
-0.0167789 -0.0357592 0.0536956 26 204 26
0.0271705 -0.0286708 0.076301 26 204 26
0.0249365 -0.0306337 -0.00509498 26 204 26
0.0291819 -0.0266208 0.0116911 26 204 26
0.0207394 -0.0336174 -0.00578392 26 204 26
0.010475 0.0380857 -0.0506713 26 204 26
0.00580949 0.0390704 -0.0279765 26 204 26
-0.0370929 -0.0135781 0.0631259 26 204 26
-0.033762 -0.0205031 0.0836769 26 204 26
-0.00661679 0.0389419 -0.0648215 26 204 26
-0.0391157 -0.0054964 -0.0640267 26 204 26
-0.0125464 0.0374545 0.0424445 26 204 26
0.0333 0.0212452 -0.0237465 26 204 26
-0.0277213 -0.0281386 -0.0570927 26 204 26
0.0393664 -0.00324598 0.0515219 26 204 26
0.039498 -0.000397249 -0.0503334 26 204 26
-0.0294259 -0.0263508 0.0633477 26 204 26
0.0290087 -0.0268094 -0.0019754 26 204 26
0.0353773 -0.0175699 0.0253184 26 204 26
-0.024657 0.0308591 -0.0977876 26 204 26
-0.0220803 0.0327522 0.0499122 26 204 26
-0.0028874 -0.0393943 0.0773681 26 204 26
-0.0135229 -0.0371131 -0.0555992 26 204 26
0.0391166 -0.0054902 0.0803 26 204 26
-0.00530674 0.0391419 -0.0683571 26 204 26
-0.0329427 -0.0217951 -0.0581496 26 204 26
0.0389385 -0.00663653 0.0676288 26 204 26
0.0248247 -0.0307243 -0.0435085 26 204 26
0.0202198 0.0339324 -0.080885 26 204 26
0.0369349 -0.0140024 0.0781604 26 204 26
0.0016859 -0.039464 0.0614149 26 204 26
0.0394009 0.00279627 0.0606944 26 204 26
0.0268209 0.0289981 -0.0581254 26 204 26
0.0391277 0.0054107 -0.0874608 26 204 26
-0.0171222 -0.0355961 0.0333194 26 204 26
0.0219076 0.032868 -0.0351035 26 204 26
0.0281903 0.0276687 0.0826888 26 204 26
0.0367239 -0.0145467 -0.0456197 26 204 26
0.0143729 -0.0367922 -0.081855 26 204 26
-0.0299138 0.0257956 0.0947247 26 204 26
-0.038089 -0.0104631 -0.00238612 26 204 26
0.0218943 0.0328769 -0.0253716 26 204 26
0.0147275 -0.0366517 0.0508276 26 204 26
-0.0297422 0.0259933 -0.0602185 26 204 26
0.0365218 -0.0150468 0.0514674 26 204 26
0.0337797 0.0204739 0.0843542 26 204 26
0.0392045 0.0048226 -0.000412438 26 204 26
-0.0315835 0.023722 -0.0539679 26 204 26
0.0308364 -0.0246854 -0.0960277 26 204 26
0.0124884 -0.0374738 0.0524105 26 204 26
0.030769 0.0247693 0.0124362 26 204 26
-0.0258277 0.0298861 0.0932871 26 204 26
-0.00346335 0.0393479 -0.0190656 26 204 26
-0.0386423 -0.00818688 0.0671676 26 204 26
-0.00633192 -0.0389892 0.0208837 26 204 26
0.0304213 -0.0251952 0.0561163 26 204 26
-0.00343585 0.0393503 0.0598684 26 204 26
0.0044347 -0.0392503 0.00243123 26 204 26
0.00285003 0.039397 -0.0784524 26 204 26
0.0350751 0.0181655 0.067057 26 204 26
0.0380618 -0.0105618 -0.0146665 26 204 26
-0.00243425 -0.0394249 -0.0624057 26 204 26
-0.0301791 0.0254848 -0.0454071 26 204 26
0.0394592 0.00179441 -0.0350489 26 204 26
-0.0394779 0.00132145 0.0724852 26 204 26
-0.0349504 0.0184044 -0.0145607 26 204 26
-0.0195882 -0.0343009 -0.0678112 26 204 26
0.024299 -0.0311418 -0.00158896 26 204 26
0.0335248 0.0208887 0.053039 26 204 26
-0.0392624 0.00432561 0.0694132 26 204 26
-0.0341743 -0.0198082 -0.025696 26 204 26
-0.0207882 0.0335872 0.0726104 26 204 26
0.0166339 -0.0358269 0.0205184 26 204 26
0.0256869 0.0300072 -0.0354182 26 204 26
0.0174712 -0.0354261 -0.0748327 26 204 26
0.0384952 -0.00885283 0.0563594 26 204 26
0.0389115 -0.00679291 -0.0583068 26 204 26
-0.031591 0.023712 0.0406006 26 204 26
0.0382371 0.00990825 0.0617962 26 204 26
0.0189999 0.0346302 -0.0642648 26 204 26
-0.0394703 0.00153147 -0.04315 26 204 26
0.0348389 0.0186146 0.0440416 26 204 26
-0.0393311 -0.00364878 0.0985535 26 204 26
-0.0380799 0.0104962 0.010747 26 204 26
0.0310881 0.0243676 0.0794626 26 204 26
0.00513093 0.0391653 -0.0329863 26 204 26
-0.0342251 0.0197203 -0.0530439 26 204 26
-0.0392123 -0.00475865 -0.0833297 26 204 26
-0.0370965 0.0135685 -0.0842409 26 204 26
-0.0347325 0.0188122 -0.0572164 26 204 26
0.0229691 -0.0321352 0.0636162 26 204 26
-0.0144487 -0.0367626 -0.0846751 26 204 26
0.0051548 -0.0391622 -0.099068 26 204 26
-0.0230625 0.0320682 -0.0763724 26 204 26
0.037343 0.0128743 -0.0660934 26 204 26
0.0387212 -0.00780524 0.0189094 26 204 26
-0.0252995 0.0303345 -0.00574555 26 204 26
-0.0386711 -0.00804943 -0.0587037 26 204 26
0.0323102 0.0227223 0.0936239 26 204 26
-0.0225012 0.0324645 -0.0205639 26 204 26
0.0199219 0.0341082 0.0469014 26 204 26
-0.0114794 0.0377952 -0.0414981 26 204 26
0.0148465 0.0366037 0.0873849 26 204 26
0.00288322 0.0393946 -0.0758857 26 204 26
0.00136178 -0.0394765 -0.0230351 26 204 26
0.0349802 -0.0183477 0.0512324 26 204 26
-0.0394771 -0.00134521 -0.0512472 26 204 26
0.0036299 0.0393329 -0.00855406 26 204 26
-0.00954215 -0.0383301 0.0973168 26 204 26
0.00378351 0.0393184 0.000330128 26 204 26
0.0392478 -0.00445615 0.0552041 26 204 26
-0.0317309 0.0235245 0.00254348 26 204 26
-0.0360666 -0.0161076 -0.0131873 26 204 26
-0.0347996 -0.018688 0.00790768 26 204 26
0.0382121 0.0100042 -0.00700973 26 204 26
0.0394108 -0.00265284 -0.0258068 26 204 26
0.0392406 -0.00451962 0.0964501 26 204 26
-0.0135183 -0.0371148 -0.048786 26 204 26
-0.0351975 0.0179273 -0.0909428 26 204 26
-0.0360996 -0.0160334 0.0297872 26 204 26
-0.0249984 0.0305832 0.00673249 26 204 26
0.0350727 -0.0181701 0.0585252 26 204 26
-0.0206407 -0.0336781 0.0599676 26 204 26
-0.0340609 0.0200026 0.0903617 26 204 26
-0.0376103 -0.0120713 0.0866437 26 204 26
-0.034979 0.0183499 0.0386921 26 204 26
0.0358801 0.0165186 0.0402842 26 204 26
0.0393378 0.00357596 -0.0463856 26 204 26
-0.0101529 -0.0381729 0.0158819 26 204 26
0.0178262 -0.0352488 -0.0407886 26 204 26
-0.0384816 0.00891177 -0.0524013 26 204 26
-0.031836 0.0233821 -0.00630773 26 204 26
0.0347924 0.0187013 0.00570998 26 204 26
-0.0393943 0.00288838 -0.0757749 26 204 26
-0.02081 -0.0335737 -0.0613292 26 204 26
-0.0382739 -0.00976519 0.0640661 26 204 26
-0.0288726 -0.026956 0.0693306 26 204 26
0.034773 0.0187374 -0.0413432 26 204 26
0.03711 -0.0135313 0.0433623 26 204 26
0.039358 -0.00334661 -0.0119305 26 204 26
0.00814209 -0.0386517 0.0787515 26 204 26
-0.0287368 0.0271006 0.0600207 26 204 26
-0.0183992 0.0349531 0.0237549 26 204 26
-0.0345998 -0.0190553 -0.00774806 26 204 26
0.0138205 -0.0370033 -0.0428838 26 204 26
-0.00824654 0.0386296 -0.0337517 26 204 26
-0.0202577 0.0339098 0.00801363 26 204 26
0.0222392 -0.0326446 -0.0240327 26 204 26
-0.0187826 0.0347486 0.0611198 26 204 26
-0.035886 -0.016506 -0.025401 26 204 26
0.036317 0.0155348 0.0602257 26 204 26
0.0340624 -0.0200001 0.0107109 26 204 26
0.0192099 0.0345142 -0.045149 26 204 26
0.0046022 -0.039231 0.0889467 26 204 26
-0.0394752 0.00139994 -0.0932414 26 204 26
0.019681 -0.0342478 0.0219337 26 204 26
0.00364646 0.0393313 0.0363834 26 204 26
0.0194088 -0.0344028 0.0659107 26 204 26
0.0137969 0.0370121 -0.037013 26 204 26
0.03332 0.0212139 -0.035976 26 204 26
-0.0101277 0.0381796 -0.0208672 26 204 26
0.0394765 0.00136359 -0.0296018 26 204 26
0.0043051 0.0392647 0.0439991 26 204 26
-0.0111377 0.0378972 -0.0943621 26 204 26
0.0302413 -0.025411 0.0129435 26 204 26
-0.0377604 0.0115931 -0.0872521 26 204 26
0.0154617 0.0363481 -0.0346185 26 204 26
0.0283606 -0.0274941 0.0414459 26 204 26
-0.0194741 0.0343658 0.0929825 26 204 26
0.0262219 0.0295409 0.0964696 26 204 26
9.4984e-05 -0.0394999 -0.098718 26 204 26
0.0392655 0.00429784 0.043141 26 204 26
0.0299079 -0.0258025 0.0321075 26 204 26
-0.0333205 -0.0212131 -0.0402536 26 204 26
-0.0163319 0.0359655 0.00406054 26 204 26
0.0377911 0.0114928 -0.0761534 26 204 26
-0.0389661 0.00647248 0.00674297 26 204 26
0.0313104 -0.0240813 0.0921782 26 204 26
0.0385292 -0.00870365 0.0211168 26 204 26
0.0378849 0.0111798 -0.0629321 26 204 26
-0.0269798 -0.0288503 -0.00430097 26 204 26
0.039469 -0.00156503 0.0061592 26 204 26
-0.00793269 0.0386953 0.0695569 26 204 26
0.0305184 0.0250775 0.0576956 26 204 26
0.0152621 -0.0364324 0.0454446 26 204 26
0.0394911 0.000840532 -0.0166021 26 204 26
0.0287502 -0.0270865 0.0575996 26 204 26
0.0137654 0.0370238 0.0940938 26 204 26
-0.0226673 0.0323488 0.0122467 26 204 26
-0.0124605 -0.0374832 0.0418685 26 204 26
0.0272997 0.0285478 0.0184465 26 204 26
0.0394995 0.00020241 -0.0409147 26 204 26
-0.0394504 0.00197969 -0.0940393 26 204 26
-0.0286745 -0.0271666 -0.0319894 26 204 26
0.0386879 -0.00796837 0.0136841 26 204 26
0.0171049 0.0356044 0.072653 26 204 26
0.0392345 0.00457243 0.0538998 26 204 26
-0.030996 -0.0244846 -0.0183516 26 204 26
-0.0168845 0.0357095 -0.0695858 26 204 26
-0.0314068 0.0239554 0.0555084 26 204 26
-0.0309535 -0.0245384 -0.0171258 26 204 26
0.0208809 0.0335297 0.0458615 26 204 26
-0.0161207 0.0360607 0.0847165 26 204 26
0.0214092 0.0331948 -0.0348035 26 204 26
-0.0328803 -0.0218892 -0.0823025 26 204 26
-0.0106648 -0.038033 -0.00894337 26 204 26
-0.0282893 -0.0275675 -0.0673774 26 204 26
-0.0133023 -0.0371927 0.088261 26 204 26
-0.00169038 0.0394638 0.0926329 26 204 26
0.0323562 -0.0226566 -0.0125271 26 204 26
0.0135651 0.0370977 0.0101698 26 204 26
-0.00486021 -0.0391999 -0.0334644 26 204 26
0.017248 0.0355353 -0.0896888 26 204 26
0.0378829 0.0111866 0.0207995 26 204 26
0.0172519 0.0355334 0.0811011 26 204 26
-0.00131987 0.0394779 0.0940573 26 204 26
0.0205407 -0.0337392 -0.0953181 26 204 26
0.0387162 -0.00782994 -0.0162507 26 204 26
-0.00337714 0.0393554 0.0624946 26 204 26
0.0317405 -0.0235116 0.0184939 26 204 26
-0.016901 0.0357016 -0.0927891 26 204 26
0.0308225 0.0247028 0.041362 26 204 26
-0.0107638 0.0380051 0.00726775 26 204 26
0.00147691 -0.0394724 0.0594047 26 204 26
0.0269401 -0.0288874 0.0908094 26 204 26
0.0376309 0.012007 -0.00473182 26 204 26
0.0240196 0.0313578 -0.0512117 26 204 26
-0.0338721 -0.0203207 0.00857055 26 204 26
-0.0163999 0.0359346 0.0347802 26 204 26
-0.0122301 0.0375589 0.000313674 26 204 26
-0.00623886 0.0390042 0.00440894 26 204 26
0.01058 0.0380567 -0.0783933 26 204 26
-0.00626434 -0.0390001 -0.0851529 26 204 26
0.0202864 -0.0338927 0.0988108 26 204 26
-0.0394751 0.00140189 0.0465766 26 204 26
0.0394788 -0.00129481 -0.0517962 26 204 26
0.027396 -0.0284554 0.059635 26 204 26
0.0394941 -0.000685555 -0.0993761 26 204 26
0.0394815 -0.00120784 -0.0280968 26 204 26
0.00084911 -0.0394909 0.020189 26 204 26
-0.0222122 0.0326629 0.0275836 26 204 26
0.0326842 -0.022181 0.0457172 26 204 26
0.0253919 0.0302573 -0.0400704 26 204 26
-0.00363589 0.0393323 0.0487202 26 204 26
0.0100222 0.0382074 0.0380913 26 204 26
-0.0212254 0.0333127 0.0594264 26 204 26
0.0235886 -0.0316832 -0.0668657 26 204 26
-0.00334764 -0.0393579 -0.0912514 26 204 26
-0.0379102 0.0110934 -0.0184148 26 204 26
0.0140925 0.0369006 -0.0503714 26 204 26
-0.0131992 0.0372295 -0.00245008 26 204 26
0.0363451 0.0154689 -0.0479282 26 204 26
-0.000129476 -0.0394998 0.0304184 26 204 26
-0.0275297 0.0283261 0.0122232 26 204 26
0.0342583 -0.0196626 -0.0474555 26 204 26
-0.0227881 -0.0322638 -0.00126824 26 204 26
0.030354 0.0252761 -0.0717626 26 204 26
0.0340384 0.0200408 0.0527202 26 204 26
-0.0363256 0.0155146 -0.0973718 26 204 26
-0.0386887 -0.00796439 0.0585011 26 204 26
-0.0385729 -0.0085076 -0.0953627 26 204 26
-0.0376226 0.0120328 0.048436 26 204 26
-0.00982527 -0.0382585 -0.0288173 26 204 26
-0.0364273 -0.0152743 0.0767296 26 204 26
-0.0169306 0.0356876 0.0898299 26 204 26
-0.00361402 0.0393343 0.00310293 26 204 26
-0.0137941 0.0370132 -0.05663 26 204 26
0.0183919 0.0349569 0.0210349 26 204 26
-0.00202368 0.0394481 0.0634108 26 204 26
-0.0351614 0.017998 0.0914956 26 204 26
0.00760013 -0.0387619 -0.0846151 26 204 26
-0.0108807 -0.0379718 0.0953002 26 204 26
0.0161164 -0.0360626 -0.0128243 26 204 26
-0.0195528 -0.0343211 -0.0233086 26 204 26
0.0349283 -0.0184463 0.0794244 26 204 26
-0.0286275 -0.0272161 -0.0770492 26 204 26
0.0162611 -0.0359976 0.0609888 26 204 26
-0.0215263 -0.033119 0.088829 26 204 26
-0.0069623 0.0388816 0.0798707 26 204 26
-0.0196778 0.0342496 -0.0686224 26 204 26
-0.0179526 0.0351846 -0.0421063 26 204 26
-0.0124649 0.0374817 0.0670279 26 204 26
-0.0360282 0.0161931 -0.0778927 26 204 26
-0.0307674 -0.0247713 -0.0161284 26 204 26
-0.0196842 0.0342459 -0.0733964 26 204 26
0.0306665 0.0248961 0.0148923 26 204 26
0.0229366 0.0321584 -0.0296295 26 204 26
0.0381084 -0.0103924 -0.0178347 26 204 26
-0.0343419 -0.0195162 0.0149275 26 204 26
0.00300128 -0.0393858 0.0334427 26 204 26
0.0382638 -0.00980469 -0.0731315 26 204 26
0.0113678 0.0378289 -0.0410307 26 204 26
0.0388269 -0.00726094 0.0341577 26 204 26
-0.00811632 -0.0386572 -0.0924053 26 204 26
-0.00590453 0.0390562 -0.0920767 26 204 26
0.0339598 -0.0201739 -0.0153671 26 204 26
-0.0266417 -0.0291628 0.0495381 26 204 26
0.029793 0.0259351 -0.0969225 26 204 26
-0.0370618 0.0136629 -0.0906434 26 204 26
-0.0174271 -0.0354478 -0.0365839 26 204 26
0.0251325 -0.0304731 0.0352466 26 204 26
0.00291858 -0.039392 0.0770547 26 204 26
-0.0315491 0.0237678 0.0214335 26 204 26
0.0301768 0.0254875 0.054373 26 204 26
-0.0262585 -0.0295084 0.0185374 26 204 26
-0.0250242 0.030562 0.0210558 26 204 26
0.0351039 -0.0181099 -0.0807159 26 204 26
0.0354234 -0.0174767 -0.0614278 26 204 26
-0.0329947 -0.0217164 -0.0102981 26 204 26
-0.00949202 0.0383426 -0.0024218 26 204 26
-0.0298144 0.0259105 0.0121614 26 204 26
-0.0394602 -0.00177344 -0.043149 26 204 26
-0.010625 0.0380442 0.065073 26 204 26
-0.0215631 -0.0330951 -0.00986045 26 204 26
-0.0263289 0.0294456 -0.0293645 26 204 26
-0.0385957 -0.00840363 -0.0031326 26 204 26
0.0165509 -0.0358653 7.69666e-05 26 204 26
0.0355301 -0.0172586 -0.0525171 26 204 26
0.0284768 -0.0273738 -0.0222804 26 204 26
0.0324561 -0.0225133 0.0912069 26 204 26
0.0342542 -0.0196698 -0.0276388 26 204 26
0.0361662 -0.0158826 -0.0256881 26 204 26
0.0352519 0.01782 0.0389269 26 204 26
0.0390692 0.00581768 -0.00343489 26 204 26
-0.0299683 0.0257323 0.038126 26 204 26
-0.0394848 -0.00109678 -0.0881024 26 204 26
0.0338622 -0.0203372 0.0729449 26 204 26
-0.0324248 0.0225585 0.0828634 26 204 26
-0.0320598 -0.0230743 0.0786487 26 204 26
-0.00920008 0.0384137 0.063541 26 204 26
0.0240834 -0.0313088 0.0765616 26 204 26
-0.0200841 -0.0340129 0.0966457 26 204 26
0.0390373 0.00602823 -0.0144032 26 204 26
0.0303692 0.0252579 0.031289 26 204 26
0.034255 -0.0196684 0.0559804 26 204 26
0.0108893 -0.0379694 0.0469656 26 204 26
-0.0279352 -0.0279262 0.0173953 26 204 26
0.0298468 0.0258731 -0.0911296 26 204 26
-0.0150732 0.036511 0.0414041 26 204 26
-0.0375535 -0.012247 -0.04603 26 204 26
-0.00205571 0.0394465 -0.0500681 26 204 26
0.0273935 0.0284578 -0.00763055 26 204 26
0.0363204 -0.0155268 -0.0692367 26 204 26
-0.00433492 0.0392614 -0.0899804 26 204 26
-0.0274112 -0.0284408 -0.0748585 26 204 26
-0.0394987 -0.000321171 -0.067991 26 204 26
0.0200392 0.0340394 0.0912109 26 204 26
-0.0287306 -0.0271072 -0.0888284 26 204 26
0.0327718 -0.0220513 -0.0161148 26 204 26
-0.0175661 -0.0353791 0.0311756 26 204 26
0.0367886 -0.0143823 0.0189732 26 204 26
0.0352976 -0.0177293 0.092545 26 204 26
-0.0186291 0.0348311 0.043626 26 204 26
-0.0353578 -0.017609 -0.0685186 26 204 26
0.0305448 -0.0250452 0.0557372 26 204 26
-0.0335064 0.0209182 0.0371041 26 204 26
0.00621826 0.0390075 0.0247471 26 204 26
0.00886869 -0.0384915 0.0304484 26 204 26
0.00644376 -0.0389709 0.0889564 26 204 26
0.0382776 -0.00975076 -0.0890891 26 204 26
0.0214779 0.0331504 0.0851197 26 204 26
-0.0157586 -0.0362204 -0.0247555 26 204 26
0.0233681 0.0318462 -0.0163948 26 204 26
0.0136434 -0.037069 0.0363924 26 204 26
0.0394322 -0.00231262 0.0770103 26 204 26
0.0258588 -0.0298592 0.0245868 26 204 26
-0.00857171 -0.0385587 0.0396613 26 204 26
0.0130684 -0.0372756 -0.0154422 26 204 26
0.0353008 0.0177229 0.0369578 26 204 26
0.0390466 -0.00596779 0.011498 26 204 26
0.038878 0.00698225 0.095194 26 204 26
0.0375872 0.012143 0.00752643 26 204 26
0.0230268 -0.0320939 0.0760845 26 204 26
-0.0252968 0.0303368 0.0364497 26 204 26
0.0323963 -0.0225994 -0.0347561 26 204 26
-0.0261584 -0.0295971 -0.0878116 26 204 26
0.0389117 0.00679177 0.0454524 26 204 26
0.0190489 0.0346033 -0.0386456 26 204 26
-0.00483559 -0.0392029 -0.0910868 26 204 26
-0.00222701 0.0394372 0.0967121 26 204 26
0.039293 -0.00403894 -0.090574 26 204 26
0.030399 0.025222 -0.086135 26 204 26
0.0393215 -0.00375044 0.012703 26 204 26
-0.0377415 0.0116546 -0.0810419 26 204 26
-0.022797 0.0322575 -0.099215 26 204 26
-0.0227134 -0.0323164 0.0433343 26 204 26
0.0387501 0.00766005 0.00193945 26 204 26
