ply
format ascii 1.0
comment Created by Open3D
element vertex 1342
property double x
property double y
property double z
property uchar red
property uchar green
property uchar blue
end_header
-0.1089 -0.0547984 0.0005 0 0 255
0.118065 0.0146874 0.0005 0 0 255
-0.0167063 -0.0783109 0.0005 0 0 255
-0.0838509 0.0116392 0.0005 0 0 255
0.000168638 -0.0886207 0.0005 0 0 255
-0.109932 0.00640012 0.0005 0 0 255
0.0937344 0.094032 0.0005 0 0 255
0.0410723 0.11635 0.0005 0 0 255
0.0115886 0.0928618 0.0005 0 0 255
-0.119405 0.11865 0.0005 0 0 255
0.0410526 0.0393907 0.0005 0 0 255
-0.00729988 -0.0237968 0.0005 0 0 255
-0.0417727 0.0998671 0.0005 0 0 255
0.0991629 0.0673029 0.0005 0 0 255
-0.0650022 0.0309185 0.0005 0 0 255
0.0885215 -0.00217226 0.0005 0 0 255
-0.0999226 0.112025 0.0005 0 0 255
-0.104606 -0.0673968 0.0005 0 0 255
-0.0463803 0.118685 0.0005 0 0 255
0.0881251 0.0765734 0.0005 0 0 255
-0.0901461 0.0661457 0.0005 0 0 255
0.0585337 0.0277517 0.0005 0 0 255
0.0741514 -0.0547653 0.0005 0 0 255
0.0731416 0.12348 0.0005 0 0 255
-0.0665956 -0.111736 0.0005 0 0 255
0.0212213 -0.0396403 0.0005 0 0 255
0.0571605 -0.0354501 0.0005 0 0 255
-0.0164993 -0.0767972 0.0005 0 0 255
0.0776531 -0.120338 0.0005 0 0 255
-0.0457064 0.0150186 0.0005 0 0 255
0.00990945 -0.120241 0.0005 0 0 255
-0.0614866 -0.123831 0.0005 0 0 255
0.0190164 0.0523581 0.0005 0 0 255
-0.0413935 0.0236886 0.0005 0 0 255
0.0900751 -0.0963185 0.0005 0 0 255
-0.0153737 -0.015661 0.0005 0 0 255
-0.0289772 0.0477122 0.0005 0 0 255
0.00359627 0.000111077 0.0005 0 0 255
-0.0437558 -0.0534483 0.0005 0 0 255
0.0274273 -0.120142 0.0005 0 0 255
0.117584 0.0439707 0.0005 0 0 255
0.119902 -0.0582108 0.0005 0 0 255
-0.0607981 -0.0582882 0.0005 0 0 255
-0.122367 0.0862823 0.0005 0 0 255
0.0832722 0.023664 0.0005 0 0 255
0.0898525 0.0849091 0.0005 0 0 255
-0.0204499 0.116123 0.0005 0 0 255
0.015908 0.0902813 0.0005 0 0 255
-0.0789816 -0.0434056 0.0005 0 0 255
-0.0962592 0.00462897 0.0005 0 0 255
0.0179109 -0.117533 0.0005 0 0 255
0.0697231 0.0377967 0.0005 0 0 255
0.0650809 -0.0303775 0.0005 0 0 255
0.0868346 0.00262653 0.0005 0 0 255
0.0490474 0.00100996 0.0005 0 0 255
-0.0782296 -0.0431466 0.0005 0 0 255
-0.0353052 -0.0483348 0.0005 0 0 255
0.0848909 0.0403281 0.0005 0 0 255
-0.0384901 -0.107631 0.0005 0 0 255
-0.0589818 -0.10757 0.0005 0 0 255
0.0987277 -0.043872 0.0005 0 0 255
0.0567325 -0.0585755 0.0005 0 0 255
0.0735554 0.0105106 0.0005 0 0 255
0.114202 -0.0202165 0.0005 0 0 255
-0.0414874 -0.0351496 0.0005 0 0 255
-0.0228542 -0.0045547 0.0005 0 0 255
0.0280761 0.0329266 0.0005 0 0 255
-0.0476562 -0.071149 0.0005 0 0 255
0.0941533 0.0544946 0.0005 0 0 255
-0.0267151 -0.0171044 0.0005 0 0 255
-0.0914773 -0.0494482 0.0005 0 0 255
0.0984902 0.0475848 0.0005 0 0 255
0.00369531 -0.0902701 0.0005 0 0 255
-0.106229 0.0302132 0.0005 0 0 255
-0.0925638 -0.0893672 0.0005 0 0 255
-0.111176 -0.104781 0.0005 0 0 255
0.110803 0.0131582 0.0005 0 0 255
0.106144 -0.0933974 0.0005 0 0 255
0.115043 -0.0275302 0.0005 0 0 255
-0.0101442 -0.114642 0.0005 0 0 255
-0.0466993 -0.107834 0.0005 0 0 255
0.0901357 -0.086054 0.0005 0 0 255
0.122014 0.0399099 0.0005 0 0 255
0.0638271 -0.0521972 0.0005 0 0 255
0.0181937 -0.0173582 0.0005 0 0 255
0.102588 -0.0286693 0.0005 0 0 255
-0.0373736 0.0673153 0.0005 0 0 255
-0.110745 0.106455 0.0005 0 0 255
0.0951444 0.0457986 0.0005 0 0 255
0.0501061 -0.120088 0.0005 0 0 255
0.0929128 -0.0765232 0.0005 0 0 255
-0.0317421 -0.0242473 0.0005 0 0 255
-0.0715862 -0.023772 0.0005 0 0 255
0.101645 0.050042 0.0005 0 0 255
-0.0437004 -0.0109821 0.0005 0 0 255
0.055924 -0.104542 0.0005 0 0 255
0.0476146 -0.083484 0.0005 0 0 255
0.0607817 0.0803863 0.0005 0 0 255
0.0792471 -0.0423168 0.0005 0 0 255
0.0505344 -0.042847 0.0005 0 0 255
0.0942231 0.0776418 0.0005 0 0 255
0.0874672 0.104072 0.0005 0 0 255
-0.116499 0.0338181 0.0005 0 0 255
0.0683674 -0.114242 0.0005 0 0 255
0.0753005 -0.0151523 0.0005 0 0 255
0.0512998 0.0158684 0.0005 0 0 255
-0.0852072 -0.121135 0.0005 0 0 255
-0.120316 -0.0712537 0.0005 0 0 255
0.0765256 -0.114302 0.0005 0 0 255
0.110822 0.000583614 0.0005 0 0 255
0.0519477 0.0776654 0.0005 0 0 255
-0.0177599 -0.0496069 0.0005 0 0 255
-0.123884 0.0638005 0.0005 0 0 255
-0.0387718 0.0964624 0.0005 0 0 255
0.114618 -0.00839653 0.0005 0 0 255
0.0135734 -0.120149 0.0005 0 0 255
0.0842373 0.112877 0.0005 0 0 255
-0.0355183 -0.0568998 0.0005 0 0 255
-0.052295 0.119122 0.0005 0 0 255
0.0786787 -0.0964105 0.0005 0 0 255
0.079775 -0.0860715 0.0005 0 0 255
0.012601 -0.0304699 0.0005 0 0 255
-0.108059 0.0544812 0.0005 0 0 255
-0.0364491 -0.0105934 0.0005 0 0 255
-0.0454397 -0.0244039 0.0005 0 0 255
0.0529535 0.0651954 0.0005 0 0 255
-0.0210158 -0.0679457 0.0005 0 0 255
0.112709 -0.0286469 0.0005 0 0 255
0.0821506 -0.0108826 0.0005 0 0 255
0.0561969 0.0483191 0.0005 0 0 255
-0.124069 -0.0123773 0.0005 0 0 255
-0.0809076 -0.0744017 0.0005 0 0 255
0.117162 0.049332 0.0005 0 0 255
-0.0281742 -0.108446 0.0005 0 0 255
-0.119763 0.114457 0.0005 0 0 255
-0.0524836 0.0989619 0.0005 0 0 255
0.0884115 0.107597 0.0005 0 0 255
0.0867159 0.0445038 0.0005 0 0 255
0.0983105 0.0917291 0.0005 0 0 255
-0.104071 0.0934036 0.0005 0 0 255
0.0718834 -0.0142268 0.0005 0 0 255
-0.0165268 -0.0700758 0.0005 0 0 255
-0.0421415 -0.057514 0.0005 0 0 255
-0.0315315 0.112396 0.0005 0 0 255
0.0879034 -0.0915718 0.0005 0 0 255
-0.102803 -0.057828 0.0005 0 0 255
0.0164884 -0.0625643 0.0005 0 0 255
-0.037308 0.0432105 0.0005 0 0 255
-0.0860692 -0.0606573 0.0005 0 0 255
-0.0543711 0.0989542 0.0005 0 0 255
0.0426576 0.0508143 0.0005 0 0 255
0.111177 0.0891127 0.0005 0 0 255
-0.00931211 -0.107687 0.0005 0 0 255
0.0587078 -0.00220451 0.0005 0 0 255
-0.0249685 -0.0951027 0.0005 0 0 255
0.0334179 0.120343 0.0005 0 0 255
0.0194424 -0.00420005 0.0005 0 0 255
0.0363875 -0.00993531 0.0005 0 0 255
-0.123509 0.0900732 0.0005 0 0 255
0.0490706 0.0562595 0.0005 0 0 255
-0.0629075 -0.0536642 0.0005 0 0 255
-0.0862396 0.0877447 0.0005 0 0 255
0.0853702 0.0513863 0.0005 0 0 255
-0.116037 0.0985675 0.0005 0 0 255
-0.0759564 0.0161051 0.0005 0 0 255
-0.0812464 -0.118775 0.0005 0 0 255
0.109748 0.0185562 0.0005 0 0 255
0.0624592 0.0411804 0.0005 0 0 255
-0.0584306 0.0902696 0.0005 0 0 255
-0.0503764 0.00639958 0.0005 0 0 255
-0.06452 0.114667 0.0005 0 0 255
-0.00389092 0.121011 0.0005 0 0 255
0.0671229 -0.090935 0.0005 0 0 255
0.0897499 0.00985178 0.0005 0 0 255
-0.102956 -0.0502821 0.0005 0 0 255
-0.0992868 0.0855472 0.0005 0 0 255
0.0617696 -0.00875572 0.0005 0 0 255
-0.00999517 -0.0821014 0.0005 0 0 255
-0.0502774 0.0126523 0.0005 0 0 255
-0.0254243 0.0697044 0.0005 0 0 255
0.062054 0.00509633 0.0005 0 0 255
0.115992 -0.112281 0.0005 0 0 255
0.0519382 -0.0966771 0.0005 0 0 255
-0.0402238 0.0499375 0.0005 0 0 255
-0.107037 0.083172 0.0005 0 0 255
-0.0250685 -0.0967251 0.0005 0 0 255
-0.0527461 0.00926301 0.0005 0 0 255
-0.0885508 -0.0481038 0.0005 0 0 255
-0.121935 -0.0507212 0.0005 0 0 255
0.0370673 -0.073352 0.0005 0 0 255
0.00116394 0.0771555 0.0005 0 0 255
0.0603367 -0.0987263 0.0005 0 0 255
-0.0667199 -0.0737663 0.0005 0 0 255
-0.0161805 0.0522392 0.0005 0 0 255
-0.0800787 -0.00192672 0.0005 0 0 255
0.0780354 0.0495857 0.0005 0 0 255
-0.0410978 -0.107058 0.0005 0 0 255
-0.0829952 0.065558 0.0005 0 0 255
-0.0781119 -0.0151118 0.0005 0 0 255
-0.0652509 -0.0304134 0.0005 0 0 255
0.0205893 -0.0574629 0.0005 0 0 255
0.113838 0.0107353 0.0005 0 0 255
-0.0995621 0.0416155 0.0005 0 0 255
-0.000623077 0.021348 0.0005 0 0 255
-0.0571935 0.079152 0.0005 0 0 255
-0.0288731 0.118016 0.0005 0 0 255
-0.0837283 0.0343797 0.0005 0 0 255
-0.0209992 0.0435911 0.0005 0 0 255
-0.0873902 0.0303115 0.0005 0 0 255
0.109816 0.121868 0.0005 0 0 255
0.0231672 0.0416317 0.0005 0 0 255
0.0856887 0.109869 0.0005 0 0 255
0.0610071 -0.113477 0.0005 0 0 255
0.0118884 -0.115087 0.0005 0 0 255
-0.0731067 0.0524081 0.0005 0 0 255
0.0240589 0.0830262 0.0005 0 0 255
0.0822954 0.0127552 0.0005 0 0 255
-0.0405893 0.00966418 0.0005 0 0 255
-0.0473708 -0.0327693 0.0005 0 0 255
0.0229562 -0.0711106 0.0005 0 0 255
0.0283658 -0.089263 0.0005 0 0 255
-0.0493769 0.0466355 0.0005 0 0 255
-0.000110615 0.0750564 0.0005 0 0 255
-0.0350159 -0.0764637 0.0005 0 0 255
-0.0186701 -0.0161241 0.0005 0 0 255
0.11966 -0.0508565 0.0005 0 0 255
-0.0935243 0.0395312 0.0005 0 0 255
0.0767351 0.0258281 0.0005 0 0 255
0.0896199 0.0765016 0.0005 0 0 255
0.104419 -0.106608 0.0005 0 0 255
0.0465983 0.105364 0.0005 0 0 255
-0.067575 -0.00672802 0.0005 0 0 255
-0.102451 0.0497824 0.0005 0 0 255
0.0933037 0.0282595 0.0005 0 0 255
-0.0445634 -0.00440683 0.0005 0 0 255
-0.0506108 0.124125 0.0005 0 0 255
-0.0935836 -0.0330007 0.0005 0 0 255
-0.0468845 -0.01276 0.0005 0 0 255
0.0845127 0.0889399 0.0005 0 0 255
-0.106136 -0.0578692 0.0005 0 0 255
0.0652148 0.114877 0.0005 0 0 255
0.0967769 0.0793699 0.0005 0 0 255
0.0781912 -0.0559818 0.0005 0 0 255
-0.0966678 0.0148032 0.0005 0 0 255
-0.0712832 0.0372903 0.0005 0 0 255
-0.105722 0.117501 0.0005 0 0 255
0.103396 0.0223854 0.0005 0 0 255
-0.0332307 -0.100017 0.0005 0 0 255
0.00814424 0.120249 0.0005 0 0 255
-0.123382 -0.0658319 0.0005 0 0 255
0.000974344 0.0880928 0.0005 0 0 255
-0.00664535 -0.0214032 0.0005 0 0 255
0.0672254 -0.102156 0.0005 0 0 255
-0.0131344 0.0546078 0.0005 0 0 255
0.123756 0.0471613 0.0005 0 0 255
0.0720984 -0.092369 0.0005 0 0 255
-0.117196 -0.0103853 0.0005 0 0 255
0.0455244 0.0431882 0.0005 0 0 255
0.0553075 0.0411243 0.0005 0 0 255
-0.0159884 -0.122437 0.0005 0 0 255
-0.0667277 0.0299461 0.0005 0 0 255
0.0962009 0.109748 0.0005 0 0 255
0.00966724 0.090806 0.0005 0 0 255
-0.0511014 -0.102885 0.0005 0 0 255
-0.0598358 -0.070481 0.0005 0 0 255
0.0954583 0.0549822 0.0005 0 0 255
0.0151863 0.0266432 0.0005 0 0 255
0.0125484 -0.0262226 0.0005 0 0 255
0.121834 0.110504 0.0005 0 0 255
0.0491123 -0.0299196 0.0005 0 0 255
-0.0831558 0.0918583 0.0005 0 0 255
0.0584537 -0.106307 0.0005 0 0 255
-0.0458918 -0.0949539 0.0005 0 0 255
-0.12358 0.121741 0.0005 0 0 255
0.0364824 0.018934 0.0005 0 0 255
-0.118677 -0.0271582 0.0005 0 0 255
-0.0940483 0.0335675 0.0005 0 0 255
0.036038 -0.106047 0.0005 0 0 255
0.0262964 -0.107968 0.0005 0 0 255
-0.0120865 0.10195 0.0005 0 0 255
0.06915 0.0533794 0.0005 0 0 255
-0.0449882 -0.102108 0.0005 0 0 255
0.0524308 0.0447943 0.0005 0 0 255
0.0230224 -0.0525094 0.0005 0 0 255
0.101336 -0.106341 0.0005 0 0 255
-0.106646 -0.0547826 0.0005 0 0 255
0.117736 0.0338339 0.0005 0 0 255
0.0559987 -0.0203751 0.0005 0 0 255
-0.114728 -0.0962992 0.0005 0 0 255
0.104543 -0.109564 0.0005 0 0 255
-0.118608 -0.0827386 0.0005 0 0 255
0.102558 0.0522049 0.0005 0 0 255
0.00563888 -0.0949027 0.0005 0 0 255
-0.00225201 -0.0869609 0.0005 0 0 255
0.0902853 0.0399749 0.0005 0 0 255
0.124047 0.00701293 0.0005 0 0 255
0.0668822 0.0710658 0.0005 0 0 255
-0.0797694 -0.0490621 0.0005 0 0 255
-0.0251185 -0.028008 0.0005 0 0 255
-0.0452968 0.104453 0.0005 0 0 255
-0.0749629 -0.119883 0.0005 0 0 255
0.100386 -0.12154 0.0005 0 0 255
-0.0691037 -0.0886226 0.0005 0 0 255
-0.0231709 0.0206763 0.0005 0 0 255
-0.00165449 0.0314659 0.0005 0 0 255
-0.0363869 0.113329 0.0005 0 0 255
0.10666 0.105409 0.0005 0 0 255
0.0211627 -0.0893851 0.0005 0 0 255
0.0585596 0.12226 0.0005 0 0 255
0.104895 -0.11972 0.0005 0 0 255
-0.0661448 0.0258847 0.0005 0 0 255
-0.0454209 0.0128719 0.0005 0 0 255
-0.0691176 -0.0689014 0.0005 0 0 255
-0.0283098 -0.0497452 0.0005 0 0 255
-0.0135393 -0.0905254 0.0005 0 0 255
0.0671681 0.0680369 0.0005 0 0 255
-0.0465875 -0.0913167 0.0005 0 0 255
0.0596741 -0.083041 0.0005 0 0 255
0.0914074 0.0345068 0.0005 0 0 255
0.0948007 -0.119982 0.0005 0 0 255
-0.0173738 -0.0274496 0.0005 0 0 255
0.00951046 0.0753855 0.0005 0 0 255
-0.060755 0.00349235 0.0005 0 0 255
-0.113382 0.10195 0.0005 0 0 255
-0.0340365 -0.00209998 0.0005 0 0 255
-0.115795 0.0032428 0.0005 0 0 255
-0.0701726 0.0505316 0.0005 0 0 255
0.0518816 -0.108409 0.0005 0 0 255
0.0198746 -0.0477154 0.0005 0 0 255
-0.0379884 0.0531215 0.0005 0 0 255
0.059623 -0.0756044 0.0005 0 0 255
0.0709746 0.0981343 0.0005 0 0 255
0.031959 0.0646773 0.0005 0 0 255
0.0780957 -0.0200696 0.0005 0 0 255
-0.0664216 0.103031 0.0005 0 0 255
-0.0930244 0.00457013 0.0495 0 0 255
-0.0955633 -0.0736223 0.0495 0 0 255
-0.097247 -0.0967869 0.0495 0 0 255
0.0649214 -0.00475922 0.0495 0 0 255
0.039133 -0.0322583 0.0495 0 0 255
-0.118255 0.120521 0.0495 0 0 255
-0.0581773 0.0267108 0.0495 0 0 255
-0.0349565 -0.0593113 0.0495 0 0 255
0.0881031 -0.0689206 0.0495 0 0 255
0.071587 -0.00514438 0.0495 0 0 255
0.0992987 -0.00472633 0.0495 0 0 255
0.117936 0.119839 0.0495 0 0 255
0.117542 0.00454978 0.0495 0 0 255
0.0408909 -0.117214 0.0495 0 0 255
-0.10266 0.032082 0.0495 0 0 255
-0.0403035 -0.0950233 0.0495 0 0 255
0.0953006 -0.110858 0.0495 0 0 255
-0.0696123 0.0887757 0.0495 0 0 255
-0.0616306 0.0654785 0.0495 0 0 255
0.00281428 -0.0701207 0.0495 0 0 255
0.0889213 -0.0394447 0.0495 0 0 255
-0.0897437 0.00949695 0.0495 0 0 255
0.0361106 -0.0854349 0.0495 0 0 255
-0.116463 0.0213733 0.0495 0 0 255
0.089853 0.0733023 0.0495 0 0 255
0.117459 0.0675399 0.0495 0 0 255
0.0939141 0.0738693 0.0495 0 0 255
-0.11456 -0.100515 0.0495 0 0 255
-0.0541248 -0.0532871 0.0495 0 0 255
0.0684481 0.0758493 0.0495 0 0 255
0.022251 -0.122893 0.0495 0 0 255
0.0845276 0.0620695 0.0495 0 0 255
-0.0636797 0.0071013 0.0495 0 0 255
-0.0911899 -0.112043 0.0495 0 0 255
0.0241557 0.103698 0.0495 0 0 255
0.0934737 -0.0116537 0.0495 0 0 255
-0.101675 -0.0373624 0.0495 0 0 255
-0.103833 -0.0317954 0.0495 0 0 255
-0.0671452 0.0871101 0.0495 0 0 255
-0.010237 -0.000838348 0.0495 0 0 255
0.0412627 -0.0621935 0.0495 0 0 255
-0.104987 -0.0898676 0.0495 0 0 255
-0.0497064 -0.00400261 0.0495 0 0 255
0.0321691 -0.0266062 0.0495 0 0 255
0.0164274 -0.116311 0.0495 0 0 255
-0.0768595 -0.0388139 0.0495 0 0 255
0.0824314 -0.0683439 0.0495 0 0 255
-0.119382 0.0166357 0.0495 0 0 255
0.110039 0.0789152 0.0495 0 0 255
0.121851 -0.0512102 0.0495 0 0 255
0.097529 0.117388 0.0495 0 0 255
-0.109291 -0.00833367 0.0495 0 0 255
0.0695314 -0.0880731 0.0495 0 0 255
0.08074 -0.0789262 0.0495 0 0 255
-0.0838113 -0.071994 0.0495 0 0 255
-0.12431 0.0863331 0.0495 0 0 255
0.0411161 -0.0820471 0.0495 0 0 255
-0.0171923 -0.0961349 0.0495 0 0 255
0.00928056 0.0967705 0.0495 0 0 255
-0.121647 -0.0138189 0.0495 0 0 255
0.0365932 -0.0368432 0.0495 0 0 255
-0.103224 0.0494871 0.0495 0 0 255
-0.114566 -0.0854255 0.0495 0 0 255
0.0989186 -0.0464541 0.0495 0 0 255
0.060604 0.119966 0.0495 0 0 255
0.0945343 0.114154 0.0495 0 0 255
0.00994977 -0.0743797 0.0495 0 0 255
0.0434955 -0.0344848 0.0495 0 0 255
0.103783 0.0168186 0.0495 0 0 255
-0.0150162 -0.011974 0.0495 0 0 255
-0.00367066 0.013992 0.0495 0 0 255
-0.122064 -0.116662 0.0495 0 0 255
0.0774397 0.0782884 0.0495 0 0 255
0.102746 0.0548233 0.0495 0 0 255
-0.12431 -0.0255073 0.0495 0 0 255
0.0231946 -0.0267572 0.0495 0 0 255
-0.0852158 -0.0547882 0.0495 0 0 255
-0.101761 -0.0443955 0.0495 0 0 255
0.0538668 -0.104856 0.0495 0 0 255
-0.0437498 -0.0833665 0.0495 0 0 255
-0.0115952 -0.0826699 0.0495 0 0 255
-0.0923536 -0.12352 0.0495 0 0 255
-0.0587647 -0.0533969 0.0495 0 0 255
0.0186256 0.0909169 0.0495 0 0 255
-0.111415 -0.0616095 0.0495 0 0 255
-0.0928861 -0.121904 0.0495 0 0 255
-0.0842561 -0.0174663 0.0495 0 0 255
-0.0162427 -0.114253 0.0495 0 0 255
-0.0494001 0.0264382 0.0495 0 0 255
0.0625889 -0.114474 0.0495 0 0 255
-0.116431 -0.00401927 0.0495 0 0 255
0.0456746 0.0261498 0.0495 0 0 255
0.0223979 -0.0486301 0.0495 0 0 255
-0.0286739 -0.0117869 0.0495 0 0 255
0.0405219 0.0795912 0.0495 0 0 255
-0.0203968 -0.0535831 0.0495 0 0 255
-0.103268 0.055164 0.0495 0 0 255
-0.021296 -0.0379097 0.0495 0 0 255
0.117409 -0.0914648 0.0495 0 0 255
-0.0477395 0.0151343 0.0495 0 0 255
-0.0976689 -0.103107 0.0495 0 0 255
0.0515045 -0.0974405 0.0495 0 0 255
-0.0474057 0.0253994 0.0495 0 0 255
0.0412627 -0.0800172 0.0495 0 0 255
0.0754589 0.014572 0.0495 0 0 255
0.114964 0.0321916 0.0495 0 0 255
0.124463 0.0125121 0.0495 0 0 255
0.101745 -0.0379965 0.0495 0 0 255
0.000696007 -0.0167663 0.0495 0 0 255
0.0489207 0.121264 0.0495 0 0 255
-0.0672618 0.00914227 0.0495 0 0 255
0.121801 -0.113398 0.0495 0 0 255
-0.0849737 -0.081576 0.0495 0 0 255
0.100248 -0.0263383 0.0495 0 0 255
0.0810964 0.0912733 0.0495 0 0 255
-0.00912137 0.0437326 0.0495 0 0 255
0.00158405 -0.0645317 0.0495 0 0 255
-0.0444583 0.0942911 0.0495 0 0 255
0.046804 -0.0841382 0.0495 0 0 255
0.0356618 0.0307878 0.0495 0 0 255
0.0389496 -0.0382204 0.0495 0 0 255
0.0986097 0.116434 0.0495 0 0 255
-0.00297999 -0.00671597 0.0495 0 0 255
0.00529172 -0.0853386 0.0495 0 0 255
0.111423 0.0795122 0.0495 0 0 255
0.102845 0.0024304 0.0495 0 0 255
-0.115848 0.0787296 0.0495 0 0 255
-0.0863263 0.0295304 0.0495 0 0 255
0.103238 -0.119587 0.0495 0 0 255
-0.0208709 -0.0265663 0.0495 0 0 255
0.0956081 0.0882353 0.0495 0 0 255
-0.0202574 -0.00365682 0.0495 0 0 255
-0.0955392 0.0694062 0.0495 0 0 255
0.0406882 -0.0297651 0.0495 0 0 255
0.0439309 0.103971 0.0495 0 0 255
0.0321508 -0.061703 0.0495 0 0 255
-0.104589 0.0286695 0.0495 0 0 255
-0.100194 0.078742 0.0495 0 0 255
0.0831245 -0.12301 0.0495 0 0 255
-0.0834119 -0.0796475 0.0495 0 0 255
0.0719815 -0.116625 0.0495 0 0 255
-0.0822935 -0.0973768 0.0495 0 0 255
-0.0338519 -0.0661068 0.0495 0 0 255
0.0137691 -0.0420139 0.0495 0 0 255
0.0519787 0.0333731 0.0495 0 0 255
0.00797466 0.0854633 0.0495 0 0 255
-0.124393 0.0950281 0.0495 0 0 255
0.12295 -0.063735 0.0495 0 0 255
-0.0786983 0.122798 0.0495 0 0 255
0.123295 0.0176342 0.0495 0 0 255
-0.0607832 -0.0642657 0.0495 0 0 255
-0.0680412 0.0908772 0.0495 0 0 255
-0.073358 0.0301124 0.0495 0 0 255
0.0275359 0.10241 0.0495 0 0 255
0.118268 -0.0449569 0.0495 0 0 255
-0.024038 -0.0692238 0.0495 0 0 255
0.103308 -0.00870954 0.0495 0 0 255
-0.0946443 0.0208972 0.0495 0 0 255
-0.0928036 0.0169053 0.0495 0 0 255
-0.0568407 -0.0295001 0.0495 0 0 255
-0.0490451 0.0427385 0.0495 0 0 255
-0.0846435 -0.0546509 0.0495 0 0 255
-0.121251 -0.0908741 0.0495 0 0 255
-0.0945715 0.0503656 0.0495 0 0 255
0.0344641 -0.0483529 0.0495 0 0 255
-0.0925999 -0.0681427 0.0495 0 0 255
-0.0207523 0.055324 0.0495 0 0 255
-0.0597383 0.0774682 0.0495 0 0 255
-0.0761865 0.124047 0.0495 0 0 255
0.0536958 0.105243 0.0495 0 0 255
-0.0862016 0.0679395 0.0495 0 0 255
-0.0923188 -0.104775 0.0495 0 0 255
-0.00475639 -0.0113209 0.0495 0 0 255
-0.00631244 -0.0863722 0.0495 0 0 255
-0.0582155 0.109956 0.0495 0 0 255
0.0899965 0.0641327 0.0495 0 0 255
0.0292035 -0.0226605 0.0495 0 0 255
-0.0722783 -0.00780163 0.0495 0 0 255
-0.0261287 0.103535 0.0495 0 0 255
-0.107648 -0.0643649 0.0495 0 0 255
0.0583272 0.0127729 0.0495 0 0 255
0.0748012 0.0945319 0.0495 0 0 255
0.0820389 -0.032693 0.0495 0 0 255
0.0217765 0.119474 0.0495 0 0 255
-0.0137354 -0.116857 0.0495 0 0 255
-0.0580719 0.0714483 0.0495 0 0 255
0.0433711 0.122837 0.0495 0 0 255
0.0577092 0.00641962 0.0495 0 0 255
-0.063601 0.0102394 0.0495 0 0 255
0.000851591 0.0746225 0.0495 0 0 255
-0.0442221 0.0160445 0.0495 0 0 255
0.00831605 0.104781 0.0495 0 0 255
-0.0488343 -0.0775709 0.0495 0 0 255
-0.102202 -0.052469 0.0495 0 0 255
-0.0112364 0.059695 0.0495 0 0 255
0.0719713 0.0347716 0.0495 0 0 255
0.00456641 0.0849589 0.0495 0 0 255
-0.110133 0.0833723 0.0495 0 0 255
0.0376791 -0.116901 0.0495 0 0 255
0.0875429 0.104041 0.0495 0 0 255
0.0995652 0.00175039 0.0495 0 0 255
-0.123017 0.087953 0.0495 0 0 255
-0.0446043 -0.0717319 0.0495 0 0 255
-0.0753026 0.0225729 0.0495 0 0 255
0.0924203 -0.0506354 0.0495 0 0 255
0.0159432 -0.0388758 0.0495 0 0 255
0.0921329 -0.0661433 0.0495 0 0 255
0.0229607 0.0986699 0.0495 0 0 255
-0.0122824 0.0493501 0.0495 0 0 255
-0.056298 0.045217 0.0495 0 0 255
-0.08138 -0.00016651 0.0495 0 0 255
-0.113541 -0.0779913 0.0495 0 0 255
-0.0170084 0.00735621 0.0495 0 0 255
-0.0248569 -0.117053 0.0495 0 0 255
0.00112636 0.0400766 0.0495 0 0 255
-0.069313 -0.0281444 0.0495 0 0 255
-0.0526187 -0.0426372 0.0495 0 0 255
-0.0635093 0.0198662 0.0495 0 0 255
-0.05251 -0.0779158 0.0495 0 0 255
0.117982 -0.0109106 0.0495 0 0 255
0.0127059 0.103275 0.0495 0 0 255
0.0756835 0.0148402 0.0495 0 0 255
0.0408742 -0.0693888 0.0495 0 0 255
0.0910945 -0.1174 0.0495 0 0 255
0.0914942 0.0949173 0.0495 0 0 255
0.0261431 -0.0360199 0.0495 0 0 255
-0.111206 -0.101046 0.0495 0 0 255
0.0954433 -0.111079 0.0495 0 0 255
-0.0718149 0.0719311 0.0495 0 0 255
0.0943704 -0.0550648 0.0495 0 0 255
-0.0337319 0.0387459 0.0495 0 0 255
0.0951008 -0.0917237 0.0495 0 0 255
0.0166779 -0.0190933 0.0495 0 0 255
0.0831533 -0.0778129 0.0495 0 0 255
-0.115491 0.0723501 0.0495 0 0 255
-0.0132735 0.0872304 0.0495 0 0 255
0.107175 0.0515948 0.0495 0 0 255
0.076169 -0.0200057 0.0495 0 0 255
0.0422012 0.0922811 0.0495 0 0 255
-0.00630515 0.0981889 0.0495 0 0 255
-0.104281 0.0134103 0.0495 0 0 255
0.120012 -0.093883 0.0495 0 0 255
-0.0141583 0.00980531 0.0495 0 0 255
-0.0784063 -0.106045 0.0495 0 0 255
0.0726705 -0.108527 0.0495 0 0 255
0.0736434 -0.101868 0.0495 0 0 255
-0.121962 -0.0934809 0.0495 0 0 255
0.0468926 -0.0575467 0.0495 0 0 255
0.05495 0.0310413 0.0495 0 0 255
-0.0926693 -0.0587747 0.0495 0 0 255
0.0450495 -0.123125 0.0495 0 0 255
-0.0792007 -0.103494 0.0495 0 0 255
-0.104979 0.105759 0.0495 0 0 255
-0.0761047 -0.0885621 0.0495 0 0 255
0.0319194 0.0604919 0.0495 0 0 255
0.114497 0.0450706 0.0495 0 0 255
-0.0678724 -0.041587 0.0495 0 0 255
0.0919441 0.0136353 0.0495 0 0 255
-0.0295887 0.119528 0.0495 0 0 255
-0.0512548 0.111712 0.0495 0 0 255
-0.0412569 -0.091074 0.0495 0 0 255
-0.0563155 0.0140203 0.0495 0 0 255
-0.108453 0.120069 0.0495 0 0 255
0.0328894 -0.0311009 0.0495 0 0 255
0.00812313 -0.0131757 0.0495 0 0 255
-0.00792937 -0.0450086 0.0495 0 0 255
-0.122099 0.0762202 0.0495 0 0 255
-0.0274624 0.0535465 0.0495 0 0 255
0.121361 0.00575738 0.0495 0 0 255
-0.0760962 0.0750206 0.0495 0 0 255
-0.0404734 0.0208868 0.0495 0 0 255
-0.00659032 0.0106855 0.0495 0 0 255
0.0965703 -0.0315566 0.0495 0 0 255
0.0978266 0.0771755 0.0495 0 0 255
-0.0370099 -0.0884752 0.0495 0 0 255
-0.0278684 -0.0766432 0.0495 0 0 255
-0.0203071 0.0984441 0.0495 0 0 255
-0.0463741 0.000856209 0.0495 0 0 255
0.0223732 -0.0293531 0.0495 0 0 255
-0.0630538 0.0780852 0.0495 0 0 255
0.00731799 0.0946092 0.0495 0 0 255
-0.00935561 0.0742056 0.0495 0 0 255
0.0971314 -0.115914 0.0495 0 0 255
-0.117502 0.0958001 0.0495 0 0 255
-0.0747652 -0.120602 0.0495 0 0 255
-0.0748432 0.08306 0.0495 0 0 255
0.0908131 0.103788 0.0495 0 0 255
-0.01724 0.0684193 0.0495 0 0 255
0.0686612 -0.117017 0.0495 0 0 255
-0.123237 -0.082032 0.0495 0 0 255
0.0458003 -0.0106776 0.0495 0 0 255
0.122942 -0.0819709 0.0495 0 0 255
0.067013 -0.0825122 0.0495 0 0 255
0.117202 0.0127698 0.0495 0 0 255
-0.0539569 -0.0247915 0.0495 0 0 255
0.102395 0.0452149 0.0495 0 0 255
0.0241788 0.0992426 0.0495 0 0 255
0.00615166 0.0480994 0.0495 0 0 255
0.0713807 -0.0831745 0.0495 0 0 255
0.11461 0.0769924 0.0495 0 0 255
-0.107205 0.0966618 0.0495 0 0 255
0.0585392 0.0645616 0.0495 0 0 255
0.106042 0.00623254 0.0495 0 0 255
0.0843952 -0.0807477 0.0495 0 0 255
0.0650244 0.0481569 0.0495 0 0 255
0.104615 0.115196 0.0495 0 0 255
0.0123233 -0.0787791 0.0495 0 0 255
-0.0341436 -0.0277299 0.0495 0 0 255
0.088258 0.00313828 0.0495 0 0 255
0.0587542 -0.0131042 0.0495 0 0 255
-0.0494844 0.0167039 0.0495 0 0 255
-0.116691 0.098747 0.0495 0 0 255
-0.0394973 0.112535 0.0495 0 0 255
-0.0239747 -0.0928105 0.0495 0 0 255
-0.0648782 0.0287498 0.0495 0 0 255
-0.0322883 -0.0971275 0.0495 0 0 255
-0.0817796 -0.0827032 0.0495 0 0 255
-0.08192 -0.000459736 0.0495 0 0 255
0.117399 -0.0283815 0.0495 0 0 255
0.118652 -0.00257663 0.0495 0 0 255
0.099158 -0.0476142 0.0495 0 0 255
0.120731 0.00849449 0.0495 0 0 255
0.050166 -0.0362391 0.0495 0 0 255
0.0392568 0.100763 0.0495 0 0 255
-0.0889315 -0.0367434 0.0495 0 0 255
-0.119614 0.032737 0.0495 0 0 255
0.026313 -0.0262052 0.0495 0 0 255
0.117666 0.105238 0.0495 0 0 255
-0.0390142 -0.082486 0.0495 0 0 255
0.0252245 0.0578198 0.0495 0 0 255
-0.0834919 -0.105795 0.0495 0 0 255
0.123405 -0.105885 0.0495 0 0 255
0.0419842 0.0735587 0.0495 0 0 255
0.0690863 -0.023981 0.0495 0 0 255
0.0971331 0.100717 0.0495 0 0 255
-0.0941818 -0.106132 0.0495 0 0 255
-0.0432448 -0.101157 0.0495 0 0 255
-0.0525534 -0.0407935 0.0495 0 0 255
0.0527014 -0.0670667 0.0495 0 0 255
0.0401141 0.060914 0.0495 0 0 255
-0.0171462 -0.106226 0.0495 0 0 255
0.0246432 0.107853 0.0495 0 0 255
-0.000946213 0.0761112 0.0495 0 0 255
-0.000622257 0.0451916 0.0495 0 0 255
-0.0545895 0.115105 0.0495 0 0 255
-0.0206733 -0.096862 0.0495 0 0 255
-0.0869178 0.0592088 0.0495 0 0 255
0.0914841 -0.0109024 0.0495 0 0 255
-0.0474251 -0.00743948 0.0495 0 0 255
-0.00655228 -0.0863656 0.0495 0 0 255
-0.04248 -0.00580587 0.0495 0 0 255
-0.0220878 0.0567966 0.0495 0 0 255
-0.0187778 0.0078826 0.0495 0 0 255
-0.0256178 0.1205 0.0495 0 0 255
0.112617 0.110477 0.0495 0 0 255
0.0645856 -0.0908411 0.0495 0 0 255
-0.00309501 0.0887945 0.0495 0 0 255
-0.122127 0.0661034 0.0495 0 0 255
0.0406444 0.121178 0.0495 0 0 255
0.106944 0.117423 0.0495 0 0 255
0.0348478 -0.0176811 0.0495 0 0 255
-0.114732 0.0949809 0.0495 0 0 255
0.00485021 0.111581 0.0495 0 0 255
-0.0528476 0.0275369 0.0495 0 0 255
-0.0871517 -0.000443403 0.0495 0 0 255
-0.0709091 -0.0112717 0.0495 0 0 255
-0.109 -0.0539067 0.0495 0 0 255
-0.00595528 0.0201394 0.0495 0 0 255
0.0137874 -0.0292999 0.0495 0 0 255
0.0454073 0.0163923 0.0495 0 0 255
-0.10124 -0.016596 0.0495 0 0 255
-0.0766141 -0.0132442 0.0495 0 0 255
0.0889087 -0.110578 0.0495 0 0 255
-0.117413 0.109635 0.0495 0 0 255
0.0869789 -0.0962807 0.0495 0 0 255
0.0146093 -0.0629059 0.0495 0 0 255
0.072165 0.0747258 0.0495 0 0 255
0.0694279 0.0527113 0.0495 0 0 255
0.0121341 0.0968726 0.0495 0 0 255
-0.110294 0.0552621 0.0495 0 0 255
0.0834607 0.0653977 0.0495 0 0 255
0.0221242 -0.034326 0.0495 0 0 255
-0.10741 -0.0318624 0.0495 0 0 255
0.111285 -0.0538652 0.0495 0 0 255
0.0370265 0.0738433 0.0495 0 0 255
-0.00567385 0.117673 0.0495 0 0 255
-0.0103317 0.0148925 0.0495 0 0 255
0.092481 0.0656209 0.0495 0 0 255
0.101047 -0.081118 0.0495 0 0 255
-0.0702273 -0.123263 0.0495 0 0 255
0.105381 0.0855213 0.0495 0 0 255
0.0161912 -0.111389 0.0495 0 0 255
-0.0956255 0.0509227 0.0495 0 0 255
-0.037543 -0.0430378 0.0495 0 0 255
0.0354412 0.0351092 0.0495 0 0 255
0.0425994 -0.0378762 0.0495 0 0 255
-0.048725 0.0395939 0.0495 0 0 255
-0.0708549 0.10084 0.0495 0 0 255
0.0483831 0.0696572 0.0495 0 0 255
-0.0385745 -0.117463 0.0495 0 0 255
0.0219693 0.0988631 0.0495 0 0 255
-0.065382 0.10602 0.0495 0 0 255
0.0377315 -0.0607666 0.0495 0 0 255
0.10242 -0.0133395 0.0495 0 0 255
-0.0498766 -0.061615 0.0495 0 0 255
0.0342193 0.041745 0.0495 0 0 255
0.0777899 0.00157126 0.0495 0 0 255
0.0436199 -0.0494693 0.0495 0 0 255
-0.0184109 0.115785 0.0495 0 0 255
-0.102829 0.0210108 0.0495 0 0 255
0.0727209 -0.049674 0.0495 0 0 255
-0.0196505 -0.0739059 0.0495 0 0 255
0.0888095 -0.10852 0.0495 0 0 255
-0.119256 -0.00987062 0.0495 0 0 255
-0.0372758 0.109206 0.0495 0 0 255
-0.110488 -0.041637 0.0495 0 0 255
-0.0972088 -0.0998479 0.0495 0 0 255
0.119185 0.0197714 0.0495 0 0 255
-0.086197 0.044095 0.0495 0 0 255
0.115891 0.123063 0.0495 0 0 255
0.100304 -0.0290324 0.0495 0 0 255
-0.0824088 -0.0109624 0.0495 0 0 255
-0.0382771 0.121687 0.0495 0 0 255
0.111144 0.120106 0.0495 0 0 255
-0.0825783 0.0504949 0.0495 0 0 255
-0.108031 -0.0154405 0.0495 0 0 255
-0.0222493 0.0001004 0.0495 0 0 255
0.0286928 0.0761313 0.0495 0 0 255
0.0645529 -0.0504267 0.0495 0 0 255
-0.0477645 -0.0274969 0.0495 0 0 255
-0.0793827 -0.0632984 0.0495 0 0 255
-0.0206877 -0.0661892 0.0495 0 0 255
-0.0508109 0.0260207 0.0495 0 0 255
0.0612494 0.0974587 0.0495 0 0 255
0.0127391 0.0535028 0.0495 0 0 255
-0.045682 -0.103228 0.0495 0 0 255
-0.03017 0.0862455 0.0495 0 0 255
0.116573 0.118129 0.0495 0 0 255
-0.120316 -0.115436 0.0495 0 0 255
-0.0875897 -0.0184926 0.0495 0 0 255
-0.0523841 -0.10705 0.0495 0 0 255
0.0733274 -0.114186 0.0495 0 0 255
-0.101481 -0.0787003 0.0495 0 0 255
-0.0593269 -0.112639 0.0495 0 0 255
0.0512546 0.115307 0.0495 0 0 255
-0.115905 0.0294391 0.0495 0 0 255
-0.0560953 -0.0101814 0.0495 0 0 255
0.0600823 -0.10488 0.0495 0 0 255
-0.113994 -0.0679262 0.0495 0 0 255
0.092214 -0.0672237 0.0495 0 0 255
-0.103451 0.0827538 0.0495 0 0 255
0.0613174 -0.0715432 0.0495 0 0 255
0.0619173 0.0989775 0.0495 0 0 255
-0.0597019 -0.0710822 0.0495 0 0 255
0.0360059 0.0422749 0.0495 0 0 255
0.0640425 -0.0788614 0.0495 0 0 255
0.0280725 0.0852442 0.0495 0 0 255
-0.0684596 -0.109718 0.0495 0 0 255
0.0951667 -0.0236319 0.0495 0 0 255
0.0691256 -0.00413925 0.0495 0 0 255
0.0190998 -0.0347588 0.0495 0 0 255
0.118713 -0.068966 0.0495 0 0 255
0.0357324 -0.0861376 0.0495 0 0 255
0.100842 -0.0212926 0.0495 0 0 255
0.100328 -0.0503952 0.0495 0 0 255
0.10332 0.0944986 0.0495 0 0 255
0.0506729 0.06946 0.0495 0 0 255
-0.108661 -0.110886 0.0495 0 0 255
-0.0572816 -0.0504258 0.0495 0 0 255
-0.0252098 -0.0787417 0.0495 0 0 255
0.0810874 -0.092298 0.0495 0 0 255
0.0839909 0.036609 0.0495 0 0 255
-0.0136964 0.115855 0.0495 0 0 255
-0.123708 -0.0356978 0.0495 0 0 255
0.0950488 0.0207415 0.0495 0 0 255
-0.113227 -0.112243 0.0495 0 0 255
0.118807 -0.10315 0.0495 0 0 255
-0.0330097 -0.108 0.0495 0 0 255
-0.0476833 0.0805911 0.0495 0 0 255
0.116328 0.112678 0.0495 0 0 255
-0.00924177 -0.0670559 0.0495 0 0 255
0.0712196 0.098773 0.0495 0 0 255
0.0373553 0.0941014 0.0495 0 0 255
0.0677067 -0.0424083 0.0495 0 0 255
-0.0505347 0.0508013 0.0495 0 0 255
0.0469261 0.0116311 0.0495 0 0 255
0.0751282 -0.0791161 0.0495 0 0 255
0.0121135 0.0363412 0.0495 0 0 255
-0.0149839 -0.0603872 0.0495 0 0 255
0.0913126 0.0448091 0.0495 0 0 255
0.00670652 -0.107665 0.0495 0 0 255
-0.0231607 0.0881137 0.0495 0 0 255
-0.0416041 0.080948 0.0495 0 0 255
0.0255958 0.0427891 0.0495 0 0 255
-0.00815223 0.0130371 0.0495 0 0 255
-0.0137362 0.115165 0.0495 0 0 255
0.0767036 -0.0539807 0.0495 0 0 255
-0.0320433 0.0245285 0.0495 0 0 255
0.0636788 0.0309229 0.0495 0 0 255
-0.069883 -0.0607939 0.0495 0 0 255
0.0895163 -0.105145 0.0495 0 0 255
-0.0588145 0.117303 0.0495 0 0 255
-0.0919098 0.0742394 0.0495 0 0 255
-0.0718341 -0.0413755 0.0495 0 0 255
0.0356093 0.056284 0.0495 0 0 255
-0.0818851 0.0697103 0.0495 0 0 255
0.0540681 -0.115107 0.0495 0 0 255
0.108853 0.106791 0.0495 0 0 255
-0.0683073 -0.0347733 0.0495 0 0 255
-0.0949999 -0.00853158 0.0495 0 0 255
0.0314625 0.0115444 0.0495 0 0 255
0.0717823 -0.0716467 0.0495 0 0 255
-0.0530799 0.042403 0.0495 0 0 255
-0.0878661 0.0404101 0.0495 0 0 255
0.0297506 -0.00865395 0.0495 0 0 255
0.103832 0.107017 0.0495 0 0 255
0.0845378 -0.0706151 0.0495 0 0 255
0.115175 0.0290128 0.0495 0 0 255
0.0799349 0.0624397 0.0495 0 0 255
0.0731944 0.113382 0.0495 0 0 255
-0.00778077 -0.0802996 0.0495 0 0 255
0.100778 0.0705057 0.0495 0 0 255
0.121528 -0.0365233 0.0495 0 0 255
-0.106025 -0.0142633 0.0495 0 0 255
0.0301934 0.0326414 0.0495 0 0 255
0.0505082 -0.0245963 0.0495 0 0 255
0.0226129 0.00929369 0.0495 0 0 255
-0.0310877 0.0702183 0.0495 0 0 255
0.0841588 -0.122716 0.0495 0 0 255
0.053838 0.102925 0.0495 0 0 255
-0.0823336 -0.0582461 0.0495 0 0 255
-0.112321 0.0651022 0.0495 0 0 255
-0.0533925 -0.0368356 0.0495 0 0 255
-0.0710954 0.0897158 0.0495 0 0 255
0.0858939 -0.120181 0.0495 0 0 255
-0.0712398 -0.00940043 0.0495 0 0 255
-0.0397503 -0.0523698 0.0495 0 0 255
0.0275206 -0.00391012 0.0495 0 0 255
-0.0978686 0.0822676 0.0495 0 0 255
0.0516712 0.0504171 0.0495 0 0 255
-0.0699094 -0.124271 0.0495 0 0 255
0.0533898 0.0857603 0.0495 0 0 255
0.0221548 -0.0354261 0.0495 0 0 255
0.0672852 0.0249746 0.0495 0 0 255
0.0833358 0.036359 0.0495 0 0 255
0.0409812 -0.0862204 0.0495 0 0 255
-0.0602209 0.0141762 0.0495 0 0 255
-0.111809 -0.0115874 0.0495 0 0 255
-0.0423483 0.0283719 0.0495 0 0 255
0.0620927 0.0638671 0.0495 0 0 255
-0.0522144 0.00279251 0.0495 0 0 255
0.107006 0.0322582 0.0495 0 0 255
0.113526 0.0594647 0.0495 0 0 255
-0.0635023 0.0372186 0.0495 0 0 255
0.0325865 -0.0742934 0.0495 0 0 255
0.0842103 0.0103578 0.0495 0 0 255
0.0427581 0.0416338 0.0495 0 0 255
0.0589626 -0.0781132 0.0495 0 0 255
-0.0249061 0.060527 0.0495 0 0 255
-0.120998 0.0783296 0.0495 0 0 255
0.0746363 0.0429804 0.0495 0 0 255
-0.0838977 0.017618 0.0495 0 0 255
-0.105442 -0.0471914 0.0495 0 0 255
0.109641 -0.0525077 0.0495 0 0 255
-0.0212303 0.0395538 0.0495 0 0 255
-0.00814482 -0.0874472 0.0495 0 0 255
-0.122872 0.0391276 0.0495 0 0 255
0.0126641 0.102278 0.0495 0 0 255
0.0809404 0.0516074 0.0495 0 0 255
0.043461 -0.0857245 0.0495 0 0 255
-0.00578531 -0.0634663 0.0495 0 0 255
-0.0609125 -0.0829912 0.0495 0 0 255
-0.106951 0.0789653 0.0495 0 0 255
-0.0404693 -0.0310566 0.0495 0 0 255
0.0519211 -0.0999609 0.0495 0 0 255
0.000310026 -0.112964 0.0495 0 0 255
-0.0738157 0.013987 0.0495 0 0 255
0.107659 0.123872 0.0495 0 0 255
-0.0529345 -0.0152142 0.0495 0 0 255
0.0353446 0.0153434 0.0495 0 0 255
-0.0348959 0.0763103 0.0495 0 0 255
-0.0083124 -0.0945645 0.0495 0 0 255
-0.0393286 0.0413367 0.0495 0 0 255
-0.103075 -0.0312146 0.0495 0 0 255
-0.0062969 -0.0737992 0.0495 0 0 255
6.83061e-05 0.012121 0.0495 0 0 255
0.0629438 0.117171 0.0495 0 0 255
0.0935146 -0.119784 0.0495 0 0 255
0.0745759 0.101384 0.0495 0 0 255
-0.0296768 -0.101807 0.0495 0 0 255
-0.104387 0.114308 0.0495 0 0 255
-0.0158139 0.0974754 0.0495 0 0 255
0.0613589 0.051128 0.0495 0 0 255
-0.0128665 -0.0371163 0.0495 0 0 255
0.0505977 -0.0969125 0.0495 0 0 255
-0.00822026 -0.0741998 0.0495 0 0 255
0.12352 -0.0397479 0.0495 0 0 255
0.116954 -0.028292 0.0495 0 0 255
0.113039 -0.100862 0.0495 0 0 255
0.109862 0.119399 0.0495 0 0 255
0.0121856 -0.0865354 0.0495 0 0 255
0.0122088 0.0476784 0.0495 0 0 255
0.0889751 -0.106893 0.0495 0 0 255
-0.0993794 -0.0895569 0.0495 0 0 255
-0.0918373 -0.000338876 0.0495 0 0 255
-0.0896463 0.0320649 0.0495 0 0 255
-0.0461397 0.0680867 0.0495 0 0 255
-0.0823636 -0.0140772 0.0495 0 0 255
-0.1136 0.0569086 0.0495 0 0 255
-0.0295645 -0.121888 0.0495 0 0 255
0.068386 -0.103967 0.0495 0 0 255
-0.0124773 -0.0903533 0.0495 0 0 255
0.0204393 0.0533694 0.0495 0 0 255
-0.0123656 0.114991 0.0495 0 0 255
-0.0623403 -0.000880453 0.0495 0 0 255
0.0437189 0.0442365 0.0495 0 0 255
0.0778515 -0.000353044 0.0495 0 0 255
-0.0205221 -0.0530781 0.0495 0 0 255
0.0308828 0.0993049 0.0495 0 0 255
0.119707 -0.0766497 0.0495 0 0 255
-0.1245 -0.0296045 0.0431382 0 0 255
-0.1245 0.0301531 0.0356235 0 0 255
-0.1245 -0.0140775 0.0150318 0 0 255
-0.1245 -0.0285617 0.010001 0 0 255
-0.1245 -0.0833695 0.0199807 0 0 255
-0.1245 -0.0537322 0.0356574 0 0 255
-0.1245 0.0290039 0.0039718 0 0 255
-0.1245 -0.0603857 0.00944091 0 0 255
-0.1245 0.0378395 0.00666276 0 0 255
-0.1245 0.0964652 0.0451207 0 0 255
-0.1245 -0.0225065 0.00224635 0 0 255
-0.1245 0.0789997 0.0435339 0 0 255
-0.1245 0.038979 0.0437278 0 0 255
-0.1245 -0.0693333 0.0322401 0 0 255
-0.1245 0.0835713 0.0489599 0 0 255
-0.1245 -0.0328714 0.00732905 0 0 255
-0.1245 0.113155 0.0219696 0 0 255
-0.1245 -0.005717 0.026263 0 0 255
-0.1245 -0.0447065 0.0464684 0 0 255
-0.1245 0.0411999 0.0300805 0 0 255
-0.1245 -0.0441455 0.00607217 0 0 255
-0.1245 -0.0960866 0.0326313 0 0 255
-0.1245 0.0385585 0.0308544 0 0 255
-0.1245 0.119261 0.0398523 0 0 255
-0.1245 0.0819061 0.0264973 0 0 255
-0.1245 -0.107866 0.00756326 0 0 255
-0.1245 -0.0174665 0.0063463 0 0 255
-0.1245 0.0125999 0.0278747 0 0 255
-0.1245 0.0139193 0.0125467 0 0 255
-0.1245 -0.059675 0.0116749 0 0 255
-0.1245 -0.0140641 0.0360114 0 0 255
-0.1245 0.0278147 0.009987 0 0 255
-0.1245 0.0418048 0.0255654 0 0 255
-0.1245 -0.0629378 0.0208668 0 0 255
-0.1245 0.114674 0.0120412 0 0 255
-0.1245 0.099282 0.0292732 0 0 255
-0.1245 -0.0997807 0.0213483 0 0 255
-0.1245 -0.0276641 0.00722439 0 0 255
-0.1245 -0.0527521 0.0403161 0 0 255
-0.1245 -0.0802085 0.0357077 0 0 255
-0.1245 -0.0484618 0.0425735 0 0 255
-0.1245 -0.0177985 0.0370339 0 0 255
-0.1245 0.0346801 0.0248292 0 0 255
-0.1245 0.0495596 0.0218517 0 0 255
-0.1245 -0.0105859 0.000734492 0 0 255
-0.1245 -0.0605549 0.00990922 0 0 255
-0.1245 -0.043565 0.0338016 0 0 255
-0.1245 -0.0463416 0.00810718 0 0 255
-0.1245 0.0386006 0.0222944 0 0 255
-0.1245 -0.0901186 0.0476625 0 0 255
-0.1245 0.0678432 0.0406538 0 0 255
-0.1245 -0.123979 0.0117686 0 0 255
-0.1245 0.0222227 0.0404472 0 0 255
-0.1245 -0.0840889 0.0062757 0 0 255
-0.1245 0.06044 0.0367174 0 0 255
-0.1245 0.0107644 0.0262186 0 0 255
-0.1245 0.0139429 0.0387001 0 0 255
-0.1245 0.0637416 0.0170448 0 0 255
-0.1245 -0.0844502 0.0202397 0 0 255
-0.1245 -0.0656232 0.0373689 0 0 255
-0.1245 -0.0110257 0.0162352 0 0 255
-0.1245 -0.117814 0.02585 0 0 255
-0.1245 0.0845497 0.0403785 0 0 255
-0.1245 0.0181743 0.0436986 0 0 255
-0.1245 -0.0148504 0.0254354 0 0 255
-0.1245 -0.0768344 0.0368832 0 0 255
-0.1245 -0.00836781 0.0296528 0 0 255
-0.1245 0.019266 0.0315723 0 0 255
-0.1245 0.0663282 0.030604 0 0 255
-0.1245 0.0687489 0.00400062 0 0 255
-0.1245 -0.114916 0.021191 0 0 255
-0.1245 -0.0447295 0.032792 0 0 255
-0.1245 0.0333075 0.00198808 0 0 255
-0.1245 0.0648253 0.0138263 0 0 255
-0.1245 0.0504963 0.0299147 0 0 255
-0.1245 -0.0132532 0.0485685 0 0 255
-0.1245 -0.120466 0.0442685 0 0 255
-0.1245 -0.00429962 0.00543799 0 0 255
-0.1245 -0.0745878 0.0369086 0 0 255
-0.1245 0.0197811 0.0262036 0 0 255
-0.1245 0.0142331 0.0160151 0 0 255
-0.1245 -0.102264 0.0372765 0 0 255
-0.1245 -0.00641722 0.0149912 0 0 255
-0.1245 0.112381 0.0293366 0 0 255
-0.1245 -0.0457526 0.0198945 0 0 255
-0.1245 0.0647807 0.00853571 0 0 255
-0.1245 0.00866945 0.0176452 0 0 255
-0.1245 0.0149909 0.0307392 0 0 255
-0.1245 -0.120064 0.0192046 0 0 255
-0.1245 0.0134362 0.0297065 0 0 255
-0.1245 -0.0228737 0.0213552 0 0 255
-0.1245 0.0293398 0.0223673 0 0 255
-0.1245 0.00207542 0.0332119 0 0 255
-0.1245 -0.087655 0.0416433 0 0 255
-0.1245 0.0389323 0.0218543 0 0 255
-0.1245 0.0958278 0.037564 0 0 255
-0.1245 -0.0976266 0.0244441 0 0 255
-0.1245 0.0778713 0.0305791 0 0 255
-0.1245 0.120212 0.0173382 0 0 255
-0.1245 0.0514795 0.00943213 0 0 255
-0.1245 -0.0765735 0.0422316 0 0 255
-0.1245 0.0408372 0.044247 0 0 255
-0.1245 -0.0965559 0.0302486 0 0 255
-0.1245 0.0966426 0.025359 0 0 255
-0.1245 -0.0644526 0.0112187 0 0 255
-0.1245 0.0696487 0.0115515 0 0 255
-0.1245 0.0455875 0.0276115 0 0 255
-0.1245 -0.063734 0.0421449 0 0 255
-0.1245 -0.0783951 0.0294751 0 0 255
-0.1245 -0.0601794 0.0442111 0 0 255
-0.1245 -0.0802287 0.0442972 0 0 255
-0.1245 -0.0360997 0.00632479 0 0 255
-0.1245 0.0354453 0.0362707 0 0 255
-0.1245 -0.0134084 0.0367993 0 0 255
-0.1245 -0.105216 0.0124926 0 0 255
-0.1245 0.113265 0.0475455 0 0 255
-0.1245 0.0828555 0.0421866 0 0 255
-0.1245 0.0865107 0.0332152 0 0 255
-0.1245 0.0525326 0.0117771 0 0 255
-0.1245 0.0380213 0.0135702 0 0 255
-0.1245 -0.0630147 0.0366352 0 0 255
-0.1245 -0.0399995 0.0423226 0 0 255
0.1245 0.0944814 0.0285128 0 0 255
0.1245 -0.111747 0.0439618 0 0 255
0.1245 -0.0141773 0.0287869 0 0 255
0.1245 -0.0249399 0.0243674 0 0 255
0.1245 -0.0664317 0.00381421 0 0 255
0.1245 0.0802636 0.0278549 0 0 255
0.1245 -0.0503382 0.0243976 0 0 255
0.1245 -0.036683 0.0355362 0 0 255
0.1245 -0.0229406 0.00847285 0 0 255
0.1245 -0.0653984 0.0276858 0 0 255
0.1245 0.0539909 0.0302612 0 0 255
0.1245 0.11337 0.00464164 0 0 255
0.1245 0.07922 0.028959 0 0 255
0.1245 -0.113507 0.0176619 0 0 255
0.1245 -0.0874514 0.0276247 0 0 255
0.1245 -0.0653084 0.0415193 0 0 255
0.1245 0.0577595 0.0283766 0 0 255
0.1245 0.106201 0.0284105 0 0 255
0.1245 -0.0783185 0.0407378 0 0 255
0.1245 -0.037856 0.0253071 0 0 255
0.1245 0.0851391 0.0436501 0 0 255
0.1245 0.0137276 0.00758274 0 0 255
0.1245 -0.017184 0.00070275 0 0 255
0.1245 -0.10105 0.0349861 0 0 255
0.1245 -0.0529138 0.0218165 0 0 255
0.1245 0.0952311 0.0444244 0 0 255
0.1245 0.0832921 0.0339361 0 0 255
0.1245 -0.0724872 0.0414848 0 0 255
0.1245 -0.020652 0.0320602 0 0 255
0.1245 -0.0470036 0.0297661 0 0 255
0.1245 -0.0936152 0.0376768 0 0 255
0.1245 0.0603002 0.0472371 0 0 255
0.1245 -0.0646683 0.0403058 0 0 255
0.1245 -0.0921692 0.00714626 0 0 255
0.1245 0.104698 0.0402254 0 0 255
0.1245 -0.0104548 0.0297401 0 0 255
0.1245 0.0844814 0.00907037 0 0 255
0.1245 -0.0110406 0.0255014 0 0 255
0.1245 0.00353095 0.0190493 0 0 255
0.1245 -0.0117318 0.0205856 0 0 255
0.1245 -0.121668 0.0167712 0 0 255
0.1245 0.0224371 0.0116144 0 0 255
0.1245 0.0616214 0.0263702 0 0 255
0.1245 0.0568409 0.00125434 0 0 255
0.1245 -0.0094138 0.0372724 0 0 255
0.1245 0.0706668 0.0133102 0 0 255
0.1245 -0.0974129 0.0254493 0 0 255
0.1245 -0.0381214 0.046069 0 0 255
0.1245 0.0676614 0.0194 0 0 255
0.1245 0.0812065 0.031402 0 0 255
0.1245 -0.0721408 0.0459246 0 0 255
0.1245 0.082089 0.00568404 0 0 255
0.1245 -0.0281925 0.0249027 0 0 255
0.1245 0.109729 0.0436477 0 0 255
0.1245 -0.0901016 0.00662002 0 0 255
0.1245 0.121417 0.0160435 0 0 255
0.1245 -0.100989 0.0115516 0 0 255
0.1245 0.0326449 0.0334918 0 0 255
0.1245 -0.0966023 0.0418618 0 0 255
0.1245 0.112534 0.00266512 0 0 255
0.1245 -0.0841725 0.018319 0 0 255
0.1245 -0.0274918 0.0208653 0 0 255
0.1245 -0.000996449 0.0402741 0 0 255
0.1245 0.0371193 0.0191677 0 0 255
0.1245 -0.0919932 0.042752 0 0 255
0.1245 0.0964235 0.00807061 0 0 255
0.1245 -0.0266417 0.0197328 0 0 255
0.1245 -0.0733341 0.00346063 0 0 255
0.1245 -0.120365 0.0164529 0 0 255
0.1245 0.00191905 0.0433852 0 0 255
0.1245 -0.0966944 0.0181866 0 0 255
0.1245 0.0588478 0.00865194 0 0 255
0.1245 -0.11736 0.0391532 0 0 255
0.1245 -0.0884771 0.0188498 0 0 255
0.1245 -0.0147662 0.0378597 0 0 255
0.1245 0.0829107 0.0218742 0 0 255
0.1245 0.0017676 0.0397047 0 0 255
0.1245 0.10212 0.0313225 0 0 255
0.1245 0.00447929 0.0376863 0 0 255
0.1245 -0.102539 0.0358915 0 0 255
0.1245 -0.0992652 0.0129141 0 0 255
0.1245 0.000876572 0.0203651 0 0 255
0.1245 0.11411 0.0201823 0 0 255
0.1245 0.100693 0.011375 0 0 255
0.1245 0.00083564 0.0257987 0 0 255
0.1245 -0.0606755 0.0271224 0 0 255
0.1245 -0.123856 0.0259047 0 0 255
0.1245 0.0778955 0.0359829 0 0 255
0.1245 0.0586925 0.0166479 0 0 255
0.1245 -0.0212054 0.00380607 0 0 255
0.1245 0.0112465 0.0490935 0 0 255
0.1245 0.0664903 0.0281991 0 0 255
0.1245 -0.0743146 0.0474193 0 0 255
0.1245 -0.0904567 0.0458934 0 0 255
0.1245 0.0597433 0.0244836 0 0 255
0.1245 -0.112925 0.0236761 0 0 255
0.1245 0.11747 0.00953951 0 0 255
0.1245 0.0158414 0.00611015 0 0 255
0.1245 -0.0610957 0.0402763 0 0 255
0.1245 0.0252891 0.00194419 0 0 255
0.1245 -0.11051 0.0296786 0 0 255
0.1245 0.102712 0.0132237 0 0 255
0.1245 -0.123988 0.0362015 0 0 255
0.1245 -0.0909938 0.0300274 0 0 255
0.1245 0.118885 0.0133635 0 0 255
0.1245 0.071567 0.0434988 0 0 255
0.1245 0.0654802 0.028608 0 0 255
0.1245 -0.0105181 0.0468201 0 0 255
0.1245 -0.0738137 0.00549968 0 0 255
0.1245 -0.0607122 0.0473158 0 0 255
0.1245 -0.0452608 0.0395939 0 0 255
0.1245 -0.115147 0.0183628 0 0 255
0.1245 -0.0305286 0.00136038 0 0 255
0.1245 0.0134871 0.00769328 0 0 255
0.1245 0.0874505 0.0323099 0 0 255
0.1245 4.39566e-05 0.0284079 0 0 255
0.1245 -0.0774793 0.0292337 0 0 255
0.1245 -0.114182 0.0476131 0 0 255
0.1245 0.0881091 0.023113 0 0 255
0.1245 0.0311153 0.0478268 0 0 255
0.1245 -0.0631722 0.0374713 0 0 255
0.1245 -0.117597 0.0252883 0 0 255
0.0204204 0.1245 0.0192137 0 0 255
-0.050279 0.1245 0.0233756 0 0 255
-0.0891708 0.1245 0.0228848 0 0 255
0.109912 0.1245 0.0199322 0 0 255
0.0368285 0.1245 0.0252091 0 0 255
0.119848 0.1245 0.0290606 0 0 255
-0.0303504 0.1245 0.039604 0 0 255
-0.00857975 0.1245 0.0349969 0 0 255
0.0287301 0.1245 0.00505548 0 0 255
0.0156931 0.1245 0.00607029 0 0 255
0.116503 0.1245 0.0262664 0 0 255
0.0845939 0.1245 0.0128355 0 0 255
0.0237173 0.1245 0.00278979 0 0 255
-0.0915724 0.1245 0.046751 0 0 255
0.0232538 0.1245 0.0246328 0 0 255
0.0997653 0.1245 0.0126858 0 0 255
-0.0723015 0.1245 0.0116715 0 0 255
-0.0241297 0.1245 0.0368077 0 0 255
0.120944 0.1245 0.0397901 0 0 255
-0.116788 0.1245 0.0482083 0 0 255
-0.000869015 0.1245 0.000729344 0 0 255
-0.105362 0.1245 0.0276627 0 0 255
0.102963 0.1245 0.036857 0 0 255
0.00932008 0.1245 0.0358219 0 0 255
0.0950044 0.1245 0.0395909 0 0 255
-0.052331 0.1245 0.00218435 0 0 255
-0.0665041 0.1245 0.00709119 0 0 255
-0.104543 0.1245 0.0199915 0 0 255
0.111411 0.1245 0.0415367 0 0 255
0.0160101 0.1245 0.0176765 0 0 255
0.0463194 0.1245 0.030647 0 0 255
-0.0225174 0.1245 0.0102362 0 0 255
-0.0868497 0.1245 0.00625977 0 0 255
0.0213427 0.1245 0.0157594 0 0 255
-0.0891753 0.1245 0.0133767 0 0 255
-0.00154796 0.1245 0.0193521 0 0 255
-0.0977313 0.1245 0.021419 0 0 255
0.0344903 0.1245 0.0273183 0 0 255
0.0327921 0.1245 0.00854064 0 0 255
0.108031 0.1245 0.02566 0 0 255
-0.0984912 0.1245 0.0290287 0 0 255
-0.0408771 0.1245 0.00437614 0 0 255
0.0855596 0.1245 0.0150548 0 0 255
0.061469 0.1245 0.0375327 0 0 255
0.0793064 0.1245 0.00687921 0 0 255
0.0433911 0.1245 0.00889264 0 0 255
0.0850088 0.1245 0.0331624 0 0 255
0.00746358 0.1245 0.0060531 0 0 255
-0.0408202 0.1245 0.00178566 0 0 255
0.0804451 0.1245 0.0068129 0 0 255
0.0207249 0.1245 0.0353283 0 0 255
-0.0112692 0.1245 0.0416477 0 0 255
0.0830478 0.1245 0.0422506 0 0 255
-0.11346 0.1245 0.0364396 0 0 255
0.122628 0.1245 0.0410681 0 0 255
-0.079371 0.1245 0.0388884 0 0 255
0.0507589 0.1245 0.00603844 0 0 255
0.0990667 0.1245 0.044681 0 0 255
0.108023 0.1245 0.0288962 0 0 255
-0.0962002 0.1245 0.0325636 0 0 255
-0.0498044 0.1245 0.0076104 0 0 255
0.0734856 0.1245 0.0257078 0 0 255
0.0572175 0.1245 0.0464956 0 0 255
0.0730282 0.1245 0.0150308 0 0 255
0.0834559 0.1245 0.0492497 0 0 255
0.0375141 0.1245 0.0252278 0 0 255
-0.0289913 0.1245 0.0250215 0 0 255
0.0143002 0.1245 0.00653263 0 0 255
0.0902033 0.1245 0.0331987 0 0 255
-0.0822752 0.1245 0.0345388 0 0 255
-0.0686646 0.1245 0.0309454 0 0 255
-0.00288517 0.1245 0.0324965 0 0 255
0.0795755 0.1245 0.0173509 0 0 255
0.100739 0.1245 0.0331745 0 0 255
-0.0600713 0.1245 0.036393 0 0 255
-0.108559 0.1245 0.00807161 0 0 255
-0.0168097 0.1245 0.0129588 0 0 255
-0.0739627 0.1245 0.0087971 0 0 255
0.120614 0.1245 0.0218421 0 0 255
-0.0604134 0.1245 0.0164037 0 0 255
0.0759229 0.1245 0.00726899 0 0 255
-0.0793379 0.1245 0.025111 0 0 255
-0.0918197 0.1245 0.0377048 0 0 255
-0.103196 0.1245 0.0266978 0 0 255
-0.0908487 0.1245 0.00455809 0 0 255
0.0207313 0.1245 0.0389435 0 0 255
0.113839 0.1245 0.046066 0 0 255
-0.0185011 0.1245 0.0276243 0 0 255
0.119556 0.1245 0.0293912 0 0 255
0.0656231 0.1245 0.0248328 0 0 255
0.0994591 0.1245 0.0107031 0 0 255
-0.0193243 0.1245 0.0222427 0 0 255
-0.0087392 0.1245 0.0461516 0 0 255
0.0952455 0.1245 0.0355354 0 0 255
0.0864264 0.1245 0.0353405 0 0 255
0.0498037 0.1245 0.0455435 0 0 255
-0.0422849 0.1245 0.0214324 0 0 255
0.0336051 0.1245 0.0380327 0 0 255
0.0683662 0.1245 0.0330564 0 0 255
-0.0567365 0.1245 0.0345919 0 0 255
-0.0698134 0.1245 0.0294618 0 0 255
-0.103151 0.1245 0.0139941 0 0 255
-0.0530515 0.1245 0.0250834 0 0 255
-0.0338393 0.1245 0.0190548 0 0 255
0.0401821 0.1245 0.0398009 0 0 255
-0.0419187 0.1245 0.00873193 0 0 255
-0.0120169 0.1245 0.0219059 0 0 255
0.0744468 0.1245 0.00122143 0 0 255
-0.0699536 0.1245 0.033786 0 0 255
0.0245821 0.1245 0.0381492 0 0 255
0.0926033 0.1245 0.000719463 0 0 255
-0.031518 0.1245 0.0224283 0 0 255
0.0797306 0.1245 0.00644466 0 0 255
-0.112573 0.1245 0.011596 0 0 255
0.0331991 0.1245 0.00761928 0 0 255
0.0273689 0.1245 0.0158872 0 0 255
-0.0357234 0.1245 0.0332243 0 0 255
-0.0507252 0.1245 0.0153046 0 0 255
0.0968001 0.1245 0.0204172 0 0 255
-0.0879106 0.1245 0.0148347 0 0 255
0.0335063 0.1245 0.0293862 0 0 255
-0.0935293 0.1245 0.00463117 0 0 255
0.00338103 -0.1245 0.0342338 0 0 255
0.036921 -0.1245 0.0154266 0 0 255
0.0263404 -0.1245 0.0386271 0 0 255
-0.0363015 -0.1245 0.0379452 0 0 255
-0.0344909 -0.1245 0.0464409 0 0 255
0.0894292 -0.1245 0.0357942 0 0 255
-0.0347712 -0.1245 0.0189283 0 0 255
-0.0964185 -0.1245 0.0238667 0 0 255
0.111536 -0.1245 0.0332484 0 0 255
-0.0461725 -0.1245 0.0368484 0 0 255
-0.0972475 -0.1245 0.0173189 0 0 255
-0.0352487 -0.1245 0.0252867 0 0 255
-0.00334677 -0.1245 0.0307111 0 0 255
0.0856707 -0.1245 0.0117211 0 0 255
-0.056053 -0.1245 0.0306307 0 0 255
0.0819307 -0.1245 0.00516811 0 0 255
-0.0380629 -0.1245 0.0165228 0 0 255
-0.0447246 -0.1245 0.0163129 0 0 255
-0.0647063 -0.1245 0.0461327 0 0 255
-0.0933105 -0.1245 0.0424003 0 0 255
-0.109068 -0.1245 0.0256499 0 0 255
