ply
format ascii 1.0
comment Created by Open3D
element vertex 1268
property double x
property double y
property double z
property uchar red
property uchar green
property uchar blue
end_header
-0.0765985 -0.0687924 0.0305 0 100 0
-0.0644003 0.10754 0.0305 0 100 0
-0.0820781 0.0839619 0.0305 0 100 0
-0.0422235 -0.037183 0.0305 0 100 0
-0.0611583 0.0239259 0.0305 0 100 0
-0.0500466 -0.0423184 0.0305 0 100 0
-0.0806624 0.110901 0.0305 0 100 0
-0.0792693 -0.0517556 0.0305 0 100 0
-0.0741656 -0.11533 0.0305 0 100 0
-0.0725626 -0.0705906 0.0305 0 100 0
-0.0801986 0.0523054 0.0305 0 100 0
-0.055365 -0.0761115 0.0305 0 100 0
-0.055182 -0.0579384 0.0305 0 100 0
-0.0697751 -0.0392426 0.0305 0 100 0
-0.04505 -0.0472585 0.0305 0 100 0
-0.0527319 0.0645053 0.0305 0 100 0
-0.0851672 -0.110933 0.0305 0 100 0
-0.0451369 -0.078889 0.0305 0 100 0
-0.0817167 0.0373528 0.0305 0 100 0
-0.0841783 -0.0397876 0.0305 0 100 0
-0.0788563 -0.0884662 0.0305 0 100 0
-0.0521921 0.102826 0.0305 0 100 0
-0.0452272 0.0331031 0.0305 0 100 0
-0.0717508 0.0982549 0.0305 0 100 0
-0.041395 -0.114686 0.0305 0 100 0
-0.0875176 -0.00959763 0.0305 0 100 0
-0.0777564 -0.0115615 0.0305 0 100 0
-0.0854162 -0.0967102 0.0305 0 100 0
-0.0583495 0.0377344 0.0305 0 100 0
-0.0811113 -0.00162429 0.0305 0 100 0
-0.0635344 -0.103291 0.0305 0 100 0
-0.0740675 0.0643353 0.0305 0 100 0
-0.0715617 0.113418 0.0305 0 100 0
-0.0646379 -0.0548191 0.0305 0 100 0
-0.0671258 -0.0110694 0.0305 0 100 0
-0.0722414 0.0183525 0.0305 0 100 0
-0.0586541 0.0439068 0.0305 0 100 0
-0.0670362 0.0612966 0.0305 0 100 0
-0.0535186 0.0109774 0.0305 0 100 0
-0.0631945 -0.122817 0.0305 0 100 0
-0.0838372 -0.00219653 0.0305 0 100 0
-0.0634365 -0.0194678 0.0305 0 100 0
-0.0809241 -0.0948384 0.0305 0 100 0
-0.0790005 0.0423614 0.0305 0 100 0
-0.0446052 -0.0461211 0.0305 0 100 0
-0.0598807 -0.120722 0.0305 0 100 0
-0.0430337 -0.0199689 0.0305 0 100 0
-0.051872 0.110876 0.0305 0 100 0
-0.0782337 0.061499 0.0305 0 100 0
-0.0734642 -0.0797507 0.0305 0 100 0
-0.0508052 0.0917497 0.0305 0 100 0
-0.0447821 0.0616483 0.0305 0 100 0
-0.0568227 0.0639132 0.0305 0 100 0
-0.0633288 0.1023 0.0305 0 100 0
-0.0681457 -0.0531935 0.0305 0 100 0
-0.0747417 0.020093 0.0305 0 100 0
-0.0657578 -0.0649546 0.0305 0 100 0
-0.0710438 -0.117287 0.0305 0 100 0
-0.0541959 0.037615 0.0305 0 100 0
-0.0506235 -0.0674175 0.0305 0 100 0
-0.0609741 -0.0714755 0.0305 0 100 0
-0.045474 0.0193441 0.0305 0 100 0
-0.0406394 -0.0406873 0.0305 0 100 0
-0.0561502 -0.104258 0.0305 0 100 0
-0.0825786 -0.0610907 0.0305 0 100 0
-0.0815755 -0.0414843 0.0305 0 100 0
-0.0813221 0.0124652 0.0305 0 100 0
-0.0568905 -0.0333058 0.0305 0 100 0
-0.0748849 0.0445804 0.0305 0 100 0
-0.0767507 0.00628987 0.0305 0 100 0
-0.0733765 0.114134 0.0305 0 100 0
-0.0627468 0.0890734 0.0305 0 100 0
-0.0568608 -0.0215164 0.0305 0 100 0
-0.0835436 0.0673977 0.0305 0 100 0
-0.0472499 0.0802722 0.0305 0 100 0
-0.0755086 0.046445 0.0305 0 100 0
-0.0679151 -0.0683314 0.0305 0 100 0
-0.0789119 -0.0872837 0.0305 0 100 0
-0.0480641 0.00421662 0.0305 0 100 0
-0.0586993 0.0450873 0.0305 0 100 0
-0.0598786 -0.120341 0.0305 0 100 0
-0.0737614 -0.0310445 0.0305 0 100 0
-0.0591021 0.0813256 0.0305 0 100 0
-0.085584 -0.105177 0.0305 0 100 0
-0.0783882 0.0357129 0.0305 0 100 0
-0.0583526 0.0766705 0.0305 0 100 0
-0.0794226 0.0570561 0.0305 0 100 0
-0.0826194 -0.00975377 0.0305 0 100 0
-0.0478211 -0.117722 0.0305 0 100 0
-0.0757679 -0.0915653 0.0305 0 100 0
-0.0452777 -0.0266771 0.0305 0 100 0
-0.0656296 -0.00954104 0.0305 0 100 0
-0.0884026 -0.00414393 0.0305 0 100 0
-0.0775542 0.101273 0.0305 0 100 0
-0.0699681 -0.115464 0.0305 0 100 0
-0.065341 0.0801808 0.0305 0 100 0
-0.0532047 0.0040203 0.0305 0 100 0
-0.0622544 0.0169374 0.0305 0 100 0
-0.0499613 0.0859922 0.0305 0 100 0
-0.0458341 0.0645192 0.0305 0 100 0
-0.0407363 0.0347167 0.0305 0 100 0
-0.072246 0.0743932 0.0305 0 100 0
-0.0847956 -0.0672382 0.0305 0 100 0
-0.0421407 0.0346427 0.0305 0 100 0
-0.0862773 -0.111829 0.0305 0 100 0
-0.0847463 0.0238754 0.0305 0 100 0
-0.0623524 0.0332097 0.0305 0 100 0
-0.0587257 0.0658424 0.0305 0 100 0
-0.0723918 0.00948072 0.0305 0 100 0
-0.0480227 -0.0866587 0.0305 0 100 0
-0.0763051 -0.0373949 0.0305 0 100 0
-0.0662715 0.000947572 0.0305 0 100 0
-0.067909 0.0863407 0.0305 0 100 0
-0.0415598 0.0350994 0.0305 0 100 0
-0.0830057 -0.0889494 0.0305 0 100 0
-0.0781295 0.0232345 0.0305 0 100 0
-0.0583667 -0.0901867 0.0305 0 100 0
-0.0477641 0.0602697 0.0305 0 100 0
-0.075836 -0.0242331 0.0305 0 100 0
-0.0653484 0.0364579 0.0305 0 100 0
-0.0712618 -0.0710119 0.0305 0 100 0
-0.0566302 -0.0598891 0.0305 0 100 0
-0.0871789 0.0350193 0.0795 0 100 0
-0.0711982 -0.0727365 0.0795 0 100 0
-0.0492265 0.114276 0.0795 0 100 0
-0.0411973 0.120485 0.0795 0 100 0
-0.0523935 -0.0225639 0.0795 0 100 0
-0.0426548 -0.0841929 0.0795 0 100 0
-0.0467251 0.12128 0.0795 0 100 0
-0.0745848 -0.123357 0.0795 0 100 0
-0.0544943 0.117816 0.0795 0 100 0
-0.0821814 0.0661416 0.0795 0 100 0
-0.0637205 0.092438 0.0795 0 100 0
-0.0716227 -0.044709 0.0795 0 100 0
-0.0773958 -0.123716 0.0795 0 100 0
-0.0664738 -0.0539384 0.0795 0 100 0
-0.0667233 0.0998258 0.0795 0 100 0
-0.0495484 -0.0970137 0.0795 0 100 0
-0.0415947 0.0633736 0.0795 0 100 0
-0.0871725 0.0759479 0.0795 0 100 0
-0.0693245 0.122354 0.0795 0 100 0
-0.0674769 -0.0556142 0.0795 0 100 0
-0.0611026 -0.0939295 0.0795 0 100 0
-0.0648601 -0.10062 0.0795 0 100 0
-0.0623912 0.107525 0.0795 0 100 0
-0.0691185 0.0974773 0.0795 0 100 0
-0.0780242 0.122046 0.0795 0 100 0
-0.0523508 -0.117784 0.0795 0 100 0
-0.0848615 -0.0697134 0.0795 0 100 0
-0.0635191 0.099792 0.0795 0 100 0
-0.0443204 -0.0597705 0.0795 0 100 0
-0.0777638 -0.0612727 0.0795 0 100 0
-0.0498488 -0.118662 0.0795 0 100 0
-0.0485262 -0.00947988 0.0795 0 100 0
-0.0515559 0.0152875 0.0795 0 100 0
-0.0830519 -0.0232383 0.0795 0 100 0
-0.0788079 0.0183581 0.0795 0 100 0
-0.0583726 -0.00901542 0.0795 0 100 0
-0.0676719 0.0155003 0.0795 0 100 0
-0.0723641 -0.0976723 0.0795 0 100 0
-0.0578101 0.105678 0.0795 0 100 0
-0.047976 0.0670937 0.0795 0 100 0
-0.0796169 -0.0965952 0.0795 0 100 0
-0.0633511 -0.0590989 0.0795 0 100 0
-0.0881342 0.0895763 0.0795 0 100 0
-0.0602812 0.0181606 0.0795 0 100 0
-0.0696475 0.0295331 0.0795 0 100 0
-0.0609413 -0.0693547 0.0795 0 100 0
-0.0682565 -0.050598 0.0795 0 100 0
-0.0828655 0.102574 0.0795 0 100 0
-0.0799649 -0.0425585 0.0795 0 100 0
-0.0767451 0.0917962 0.0795 0 100 0
-0.0489906 0.0317766 0.0795 0 100 0
-0.0882006 -0.0732793 0.0795 0 100 0
-0.0511991 0.0668533 0.0795 0 100 0
-0.0610167 0.0448812 0.0795 0 100 0
-0.0482559 -0.0213655 0.0795 0 100 0
-0.0698653 -0.0852473 0.0795 0 100 0
-0.0423895 -0.0614646 0.0795 0 100 0
-0.0462936 -0.070005 0.0795 0 100 0
-0.0486176 -0.0569314 0.0795 0 100 0
-0.0655212 0.0539723 0.0795 0 100 0
-0.0727399 0.0837014 0.0795 0 100 0
-0.0847229 0.0863326 0.0795 0 100 0
-0.0851901 -0.0466441 0.0795 0 100 0
-0.0477213 -0.114898 0.0795 0 100 0
-0.066137 0.103354 0.0795 0 100 0
-0.0701845 0.0217465 0.0795 0 100 0
-0.0872945 0.104339 0.0795 0 100 0
-0.0625592 0.0429983 0.0795 0 100 0
-0.0841716 0.00128086 0.0795 0 100 0
-0.0406122 0.00182168 0.0795 0 100 0
-0.0892008 -0.0435232 0.0795 0 100 0
-0.0703027 0.0902974 0.0795 0 100 0
-0.0812619 -0.0102953 0.0795 0 100 0
-0.0416869 -0.0710573 0.0795 0 100 0
-0.0649871 -0.118594 0.0795 0 100 0
-0.0555504 -0.114362 0.0795 0 100 0
-0.0621313 0.0659753 0.0795 0 100 0
-0.0648273 -0.00161345 0.0795 0 100 0
-0.0602287 -0.084474 0.0795 0 100 0
-0.0561027 -0.0363053 0.0795 0 100 0
-0.0439505 0.0415254 0.0795 0 100 0
-0.0725565 0.0931492 0.0795 0 100 0
-0.0697112 -0.0814337 0.0795 0 100 0
-0.0593003 0.0249477 0.0795 0 100 0
-0.0731679 0.0411475 0.0795 0 100 0
-0.0864491 -0.0661392 0.0795 0 100 0
-0.0454339 -0.0370626 0.0795 0 100 0
-0.0758883 -0.0491437 0.0795 0 100 0
-0.0782975 0.101676 0.0795 0 100 0
-0.0800593 -0.0441097 0.0795 0 100 0
-0.043992 -0.0483528 0.0795 0 100 0
-0.0856608 0.0110921 0.0795 0 100 0
-0.0764473 0.0287887 0.0795 0 100 0
-0.086365 -0.011431 0.0795 0 100 0
-0.0545249 -0.0907927 0.0795 0 100 0
-0.0778981 0.093991 0.0795 0 100 0
-0.0517092 -0.0214531 0.0795 0 100 0
-0.0710499 0.0223836 0.0795 0 100 0
-0.0613813 -0.0518817 0.0795 0 100 0
-0.0848958 0.0295333 0.0795 0 100 0
-0.0679807 0.0385621 0.0795 0 100 0
-0.0465928 0.0519906 0.0795 0 100 0
-0.0468565 -0.118679 0.0795 0 100 0
-0.048097 -0.0769172 0.0795 0 100 0
-0.0826418 -0.0809678 0.0795 0 100 0
-0.0679511 -0.0313933 0.0795 0 100 0
-0.0830926 -0.00500185 0.0795 0 100 0
-0.0496441 -0.0430152 0.0795 0 100 0
-0.0472493 0.0166835 0.0795 0 100 0
-0.0488894 0.0421052 0.0795 0 100 0
-0.0877658 -0.0657124 0.0795 0 100 0
-0.0733321 -0.121984 0.0795 0 100 0
-0.0785602 0.107117 0.0795 0 100 0
-0.0854144 0.0636719 0.0795 0 100 0
-0.05319 -0.0496334 0.0795 0 100 0
-0.050164 -0.0714708 0.0795 0 100 0
-0.071566 -0.08075 0.0795 0 100 0
-0.0564038 -0.0752255 0.0795 0 100 0
-0.0673209 0.0476624 0.0795 0 100 0
-0.0697621 0.0117465 0.0795 0 100 0
-0.0853136 0.0245116 0.0795 0 100 0
-0.0511478 0.0932882 0.0795 0 100 0
-0.0895 0.0771611 0.0569816 0 100 0
-0.0895 -0.0822798 0.0515862 0 100 0
-0.0895 -0.0657038 0.0617097 0 100 0
-0.0895 -0.0979217 0.0755779 0 100 0
-0.0895 0.0514528 0.0486636 0 100 0
-0.0895 -0.0352093 0.0474807 0 100 0
-0.0895 -0.111985 0.0597431 0 100 0
-0.0895 -0.0767018 0.0733161 0 100 0
-0.0895 -0.0142685 0.0740769 0 100 0
-0.0895 -0.0184408 0.0747169 0 100 0
-0.0895 -0.07813 0.0405213 0 100 0
-0.0895 -0.0125146 0.0518044 0 100 0
-0.0895 0.105925 0.064722 0 100 0
-0.0895 -0.0574359 0.0734297 0 100 0
-0.0895 0.052561 0.0662655 0 100 0
-0.0895 0.0315516 0.0476572 0 100 0
-0.0895 -0.0818052 0.0729926 0 100 0
-0.0895 0.0978027 0.073747 0 100 0
-0.0895 -0.0226025 0.0535488 0 100 0
-0.0895 0.10143 0.0643569 0 100 0
-0.0895 -0.020578 0.0743501 0 100 0
-0.0895 -0.0754939 0.06784 0 100 0
-0.0895 0.0109838 0.0662321 0 100 0
-0.0895 0.112608 0.0656932 0 100 0
-0.0895 0.0356432 0.0704436 0 100 0
-0.0895 0.110392 0.0513239 0 100 0
-0.0895 -0.0560089 0.0485948 0 100 0
-0.0895 0.120207 0.0628718 0 100 0
-0.0895 -0.0376558 0.0480748 0 100 0
-0.0895 0.0581974 0.0778806 0 100 0
-0.0895 0.0160682 0.0327038 0 100 0
-0.0895 -0.0155965 0.0396356 0 100 0
-0.0895 -0.105441 0.0536435 0 100 0
-0.0895 0.0876247 0.0431967 0 100 0
-0.0895 0.0839469 0.0645312 0 100 0
-0.0895 -0.0684495 0.0454057 0 100 0
-0.0895 0.0182947 0.0793347 0 100 0
-0.0895 0.0857037 0.0461099 0 100 0
-0.0895 0.0876 0.0759063 0 100 0
-0.0895 0.10816 0.0578788 0 100 0
-0.0895 0.113581 0.0561712 0 100 0
-0.0895 0.00675026 0.064478 0 100 0
-0.0895 0.0189294 0.05047 0 100 0
-0.0895 0.039845 0.0305735 0 100 0
-0.0895 -0.100906 0.0314453 0 100 0
-0.0895 -0.0119039 0.0426014 0 100 0
-0.0895 0.0651596 0.0491009 0 100 0
-0.0895 0.0443988 0.0647734 0 100 0
-0.0895 -0.111919 0.0346386 0 100 0
-0.0895 -0.0801471 0.0720714 0 100 0
-0.0895 0.0430876 0.065478 0 100 0
-0.0895 -0.092837 0.0579415 0 100 0
-0.0895 0.0597389 0.0409679 0 100 0
-0.0895 0.0607031 0.0712808 0 100 0
-0.0895 -0.107924 0.0563731 0 100 0
-0.0895 -0.00599648 0.051511 0 100 0
-0.0895 -0.0695987 0.0602383 0 100 0
-0.0895 0.0514599 0.0363587 0 100 0
-0.0895 -0.109907 0.071668 0 100 0
-0.0895 0.0984832 0.0684511 0 100 0
-0.0895 0.0165381 0.035542 0 100 0
-0.0895 -0.123504 0.0521617 0 100 0
-0.0895 -0.0753492 0.0552078 0 100 0
-0.0895 -0.0621693 0.0618217 0 100 0
-0.0895 -0.111938 0.0455198 0 100 0
-0.0895 -0.0514024 0.0791538 0 100 0
-0.0895 0.0066175 0.0429134 0 100 0
-0.0895 0.0424234 0.0450672 0 100 0
-0.0895 -0.0987332 0.0400869 0 100 0
-0.0895 -0.0422093 0.0689902 0 100 0
-0.0895 0.0949986 0.076674 0 100 0
-0.0895 -0.0480629 0.0642224 0 100 0
-0.0895 -0.0873783 0.0699533 0 100 0
-0.0895 -0.0465829 0.0319109 0 100 0
-0.0895 0.0182612 0.0689236 0 100 0
-0.0895 0.0911442 0.0553766 0 100 0
-0.0895 -0.101934 0.0448993 0 100 0
-0.0895 -0.106154 0.0363491 0 100 0
-0.0895 -0.0189563 0.0411862 0 100 0
-0.0895 -0.0724339 0.0780699 0 100 0
-0.0895 0.0580438 0.0559792 0 100 0
-0.0895 0.107517 0.0542927 0 100 0
-0.0895 0.0885332 0.044629 0 100 0
-0.0895 -0.0100023 0.0440423 0 100 0
-0.0895 -0.0329715 0.0705024 0 100 0
-0.0895 -0.0207355 0.0492218 0 100 0
-0.0895 0.030469 0.0310776 0 100 0
-0.0895 0.080322 0.0306674 0 100 0
-0.0895 -0.0752019 0.0581607 0 100 0
-0.0895 -0.0328348 0.077873 0 100 0
-0.0895 -0.0396315 0.0669922 0 100 0
-0.0895 -0.109568 0.0444711 0 100 0
-0.0895 0.093639 0.0702312 0 100 0
-0.0895 -0.10804 0.0754795 0 100 0
-0.0895 -0.0155555 0.0546476 0 100 0
-0.0895 -0.0648809 0.0564238 0 100 0
-0.0895 -0.00127203 0.0416081 0 100 0
-0.0895 -0.0410174 0.0596731 0 100 0
-0.0895 -0.0259053 0.0350397 0 100 0
-0.0895 -0.00472923 0.0436474 0 100 0
-0.0895 -0.024378 0.0450508 0 100 0
-0.0895 0.0118656 0.0793778 0 100 0
-0.0895 0.0539267 0.051863 0 100 0
-0.0895 0.092866 0.0349726 0 100 0
-0.0895 -0.123717 0.0733685 0 100 0
-0.0895 0.0436807 0.0510204 0 100 0
-0.0895 0.0889522 0.0685718 0 100 0
-0.0895 -0.11737 0.0762542 0 100 0
-0.0895 -0.0992797 0.0503011 0 100 0
-0.0895 0.0641018 0.0697453 0 100 0
-0.0895 -0.0634255 0.0753876 0 100 0
-0.0895 -0.0107291 0.0520646 0 100 0
-0.0895 0.0731989 0.071378 0 100 0
-0.0895 -0.11964 0.0468483 0 100 0
-0.0895 0.120273 0.0662273 0 100 0
-0.0895 -0.0175361 0.044483 0 100 0
-0.0895 0.0190385 0.0365387 0 100 0
-0.0895 0.0140746 0.0395516 0 100 0
-0.0895 0.00256504 0.0631685 0 100 0
-0.0895 0.0206059 0.0609705 0 100 0
-0.0895 0.0272316 0.031586 0 100 0
-0.0895 0.12159 0.0640517 0 100 0
-0.0405 -0.118529 0.0522294 0 100 0
-0.0405 0.0488429 0.0685152 0 100 0
-0.0405 0.109306 0.0752104 0 100 0
-0.0405 0.0934607 0.0765328 0 100 0
-0.0405 -0.0541927 0.0778848 0 100 0
-0.0405 0.0443674 0.0759778 0 100 0
-0.0405 0.0830018 0.068369 0 100 0
-0.0405 0.0530965 0.0767402 0 100 0
-0.0405 0.105224 0.0362083 0 100 0
-0.0405 -0.0947286 0.064694 0 100 0
-0.0405 0.0048361 0.0548315 0 100 0
-0.0405 0.0817714 0.0449072 0 100 0
-0.0405 -0.101142 0.0401226 0 100 0
-0.0405 -0.0780275 0.0790089 0 100 0
-0.0405 -0.00679294 0.0324849 0 100 0
-0.0405 -0.00949571 0.0368336 0 100 0
-0.0405 0.0535441 0.0465161 0 100 0
-0.0405 -0.116648 0.0377852 0 100 0
-0.0405 -0.0306978 0.0743074 0 100 0
-0.0405 -0.0190368 0.0311601 0 100 0
-0.0405 -0.0791848 0.0788998 0 100 0
-0.0405 -0.113327 0.0674138 0 100 0
-0.0405 -0.0360753 0.0389903 0 100 0
-0.0405 -0.0741972 0.0688623 0 100 0
-0.0405 0.0449513 0.0501515 0 100 0
-0.0405 0.0470097 0.0338224 0 100 0
-0.0405 -0.0429027 0.0580411 0 100 0
-0.0405 -0.121759 0.0345308 0 100 0
-0.0405 0.0664091 0.0523448 0 100 0
-0.0405 0.118085 0.0702698 0 100 0
-0.0405 -0.0292939 0.0382913 0 100 0
-0.0405 4.48452e-05 0.068896 0 100 0
-0.0405 -0.0514556 0.0581546 0 100 0
-0.0405 0.123635 0.0757966 0 100 0
-0.0405 -0.100023 0.0531382 0 100 0
-0.0405 0.0145546 0.0396678 0 100 0
-0.0405 -0.0351667 0.0601737 0 100 0
-0.0405 0.0119853 0.0578242 0 100 0
-0.0405 0.0681919 0.0541207 0 100 0
-0.0405 0.024334 0.0693964 0 100 0
-0.0405 -0.0748626 0.0786323 0 100 0
-0.0405 -0.0840159 0.0359048 0 100 0
-0.0405 -0.079597 0.0749059 0 100 0
-0.0405 -0.0380829 0.0701121 0 100 0
-0.0405 -0.123137 0.0695604 0 100 0
-0.0405 0.0597262 0.0571536 0 100 0
-0.0405 0.123685 0.0446023 0 100 0
-0.0405 0.0393468 0.037793 0 100 0
-0.0405 0.0219718 0.0588919 0 100 0
-0.0405 0.0900275 0.04246 0 100 0
-0.0405 -0.0359596 0.0457331 0 100 0
-0.0405 0.0179945 0.0443901 0 100 0
-0.0405 0.10823 0.0332952 0 100 0
-0.0405 -0.121361 0.0599962 0 100 0
-0.0405 0.00166206 0.0424583 0 100 0
-0.0405 -0.0881187 0.0733223 0 100 0
-0.0405 0.0706268 0.051442 0 100 0
-0.0405 0.101515 0.0353923 0 100 0
-0.0405 0.0472233 0.045313 0 100 0
-0.0405 0.115032 0.0362488 0 100 0
-0.0405 0.0153985 0.0571014 0 100 0
-0.0405 0.0688363 0.0461748 0 100 0
-0.0405 -0.0619059 0.0485514 0 100 0
-0.0405 -0.0864694 0.0637857 0 100 0
-0.0405 -0.100604 0.0635951 0 100 0
-0.0405 -0.069513 0.0689233 0 100 0
-0.0405 0.113211 0.0564383 0 100 0
-0.0405 0.0072197 0.0437698 0 100 0
-0.0405 -0.0886593 0.074115 0 100 0
-0.0405 0.0705541 0.0672072 0 100 0
-0.0405 0.0702994 0.0591244 0 100 0
-0.0405 0.0838883 0.0565673 0 100 0
-0.0405 -0.106908 0.0771888 0 100 0
-0.0405 0.0753192 0.0584606 0 100 0
-0.0405 -0.0787237 0.0468203 0 100 0
-0.0405 0.0759782 0.0633147 0 100 0
-0.0405 0.110903 0.0522295 0 100 0
-0.0405 0.0594219 0.0412344 0 100 0
-0.0405 0.0945726 0.0652221 0 100 0
-0.0405 0.0923833 0.0459525 0 100 0
-0.0405 -0.0413936 0.0441512 0 100 0
-0.0405 -0.014806 0.0392133 0 100 0
-0.0405 -0.0592692 0.0416208 0 100 0
-0.0405 0.0964805 0.0742506 0 100 0
-0.0405 0.00720788 0.0687536 0 100 0
-0.0405 0.00428191 0.0583718 0 100 0
-0.0405 -0.101635 0.051834 0 100 0
-0.0405 -0.0328601 0.0623249 0 100 0
-0.0405 0.00549931 0.0395454 0 100 0
-0.0405 0.00738094 0.0382927 0 100 0
-0.0405 -0.0895987 0.0582506 0 100 0
-0.0405 0.00470065 0.034467 0 100 0
-0.0405 0.000847512 0.0680165 0 100 0
-0.0405 -0.0676796 0.0663556 0 100 0
-0.0405 0.0217862 0.0612022 0 100 0
-0.0405 -0.0577866 0.03395 0 100 0
-0.0405 -0.0212756 0.0338993 0 100 0
-0.0405 0.124226 0.073797 0 100 0
-0.0405 -0.0436033 0.0631429 0 100 0
-0.0405 0.00810107 0.0506614 0 100 0
-0.0405 -0.0939558 0.0332796 0 100 0
-0.0405 -0.0403125 0.0747266 0 100 0
-0.0405 0.0692788 0.0448323 0 100 0
-0.0405 -0.0976946 0.0371962 0 100 0
-0.0405 0.0834564 0.0690684 0 100 0
-0.0405 -0.0595821 0.0344748 0 100 0
-0.0405 -0.0135865 0.0428392 0 100 0
-0.0405 -0.00365127 0.0658737 0 100 0
-0.0405 0.0803516 0.070435 0 100 0
-0.0405 0.056795 0.0720886 0 100 0
-0.0405 0.0893208 0.0434148 0 100 0
-0.0405 0.0608156 0.0372125 0 100 0
-0.0405 0.0379357 0.0323021 0 100 0
-0.0405 0.0494436 0.0335705 0 100 0
-0.0405 0.115629 0.053661 0 100 0
-0.0405 -0.0332444 0.0687706 0 100 0
-0.0405 -0.0466907 0.0598848 0 100 0
-0.0405 -0.0401976 0.0523468 0 100 0
-0.0405 0.0767157 0.047574 0 100 0
-0.0405 -0.0403879 0.0391276 0 100 0
-0.0405 -0.0851845 0.0486926 0 100 0
-0.0405 0.106679 0.0361675 0 100 0
-0.0552798 0.1245 0.0655829 0 100 0
-0.0893627 0.1245 0.0677008 0 100 0
-0.0635931 0.1245 0.0759791 0 100 0
-0.0625095 0.1245 0.0527226 0 100 0
-0.0552796 0.1245 0.0312588 0 100 0
-0.0659171 0.1245 0.0716419 0 100 0
-0.0853652 0.1245 0.0379892 0 100 0
-0.0881045 0.1245 0.0594595 0 100 0
-0.0435606 0.1245 0.0533923 0 100 0
-0.0843307 0.1245 0.0360854 0 100 0
-0.0506467 0.1245 0.0504537 0 100 0
-0.0411511 0.1245 0.04323 0 100 0
-0.0836549 0.1245 0.0428031 0 100 0
-0.0868616 0.1245 0.0597608 0 100 0
-0.0652319 0.1245 0.0680274 0 100 0
-0.0808838 0.1245 0.0470297 0 100 0
-0.0825957 0.1245 0.0607031 0 100 0
-0.0749076 0.1245 0.0531177 0 100 0
-0.0472849 0.1245 0.0493806 0 100 0
-0.074466 0.1245 0.0611292 0 100 0
-0.0535975 0.1245 0.056582 0 100 0
-0.0555422 0.1245 0.0407291 0 100 0
-0.0441805 0.1245 0.048905 0 100 0
-0.0601776 0.1245 0.0384618 0 100 0
-0.0869488 -0.1245 0.0791536 0 100 0
-0.05946 -0.1245 0.0406984 0 100 0
-0.0536466 -0.1245 0.0752242 0 100 0
-0.0799656 -0.1245 0.0370066 0 100 0
-0.076275 -0.1245 0.0528601 0 100 0
-0.0716735 -0.1245 0.0538382 0 100 0
-0.0499921 -0.1245 0.0316461 0 100 0
-0.0576898 -0.1245 0.0354994 0 100 0
-0.0475791 -0.1245 0.0417789 0 100 0
-0.049912 -0.1245 0.0370632 0 100 0
-0.0550576 -0.1245 0.0577482 0 100 0
-0.0656482 -0.1245 0.0479933 0 100 0
-0.0715945 -0.1245 0.0640327 0 100 0
-0.0553672 -0.1245 0.0710599 0 100 0
-0.0573666 -0.1245 0.0309858 0 100 0
-0.0750825 -0.1245 0.0360482 0 100 0
-0.06084 -0.1245 0.0537169 0 100 0
-0.0862334 -0.1245 0.0566695 0 100 0
-0.0434145 -0.1245 0.0598405 0 100 0
-0.0420345 -0.1245 0.0631018 0 100 0
-0.0465837 -0.1245 0.0453658 0 100 0
-0.087262 -0.1245 0.041562 0 100 0
-0.0417616 -0.1245 0.0773157 0 100 0
-0.0575484 -0.1245 0.0450084 0 100 0
0.185586 0.0914395 0.0305 0 100 0
-0.0354915 0.0815576 0.0305 0 100 0
0.234692 0.0948751 0.0305 0 100 0
0.131008 0.102448 0.0305 0 100 0
0.193592 0.113452 0.0305 0 100 0
0.119798 0.117568 0.0305 0 100 0
0.150589 0.124016 0.0305 0 100 0
0.0529571 0.112039 0.0305 0 100 0
-0.00873315 0.0967023 0.0305 0 100 0
0.307569 0.0997173 0.0305 0 100 0
0.0447833 0.0895048 0.0305 0 100 0
0.118794 0.119285 0.0305 0 100 0
0.0779233 0.104262 0.0305 0 100 0
0.304603 0.0943883 0.0305 0 100 0
0.0348273 0.107384 0.0305 0 100 0
0.290856 0.106775 0.0305 0 100 0
0.110175 0.0923479 0.0305 0 100 0
0.168258 0.0840458 0.0305 0 100 0
0.204477 0.12417 0.0305 0 100 0
0.0145722 0.102897 0.0305 0 100 0
0.121402 0.0958159 0.0305 0 100 0
0.286167 0.0760815 0.0305 0 100 0
0.171318 0.0774478 0.0305 0 100 0
0.0947243 0.0884022 0.0305 0 100 0
0.189615 0.0773176 0.0305 0 100 0
0.0580372 0.0770642 0.0305 0 100 0
0.145924 0.0815584 0.0305 0 100 0
0.140655 0.0894025 0.0305 0 100 0
0.163757 0.109265 0.0305 0 100 0
0.302768 0.0890478 0.0305 0 100 0
0.290703 0.0976775 0.0305 0 100 0
0.30023 0.104258 0.0305 0 100 0
0.0204513 0.12106 0.0305 0 100 0
0.0529995 0.076007 0.0305 0 100 0
0.0437935 0.0919498 0.0305 0 100 0
0.0608226 0.0954275 0.0305 0 100 0
0.126969 0.0904977 0.0305 0 100 0
0.235649 0.122645 0.0305 0 100 0
0.257082 0.108336 0.0305 0 100 0
0.252469 0.0987489 0.0305 0 100 0
0.225115 0.104734 0.0305 0 100 0
0.276637 0.111982 0.0305 0 100 0
0.217872 0.11315 0.0305 0 100 0
0.0940438 0.120318 0.0305 0 100 0
-0.03088 0.107797 0.0305 0 100 0
0.00157768 0.123813 0.0305 0 100 0
0.191005 0.11883 0.0305 0 100 0
0.108009 0.100585 0.0305 0 100 0
0.174056 0.0834518 0.0305 0 100 0
0.0842727 0.0996369 0.0305 0 100 0
0.290382 0.09822 0.0305 0 100 0
0.0681959 0.11586 0.0305 0 100 0
0.140365 0.09247 0.0305 0 100 0
-0.0273924 0.124183 0.0305 0 100 0
0.146678 0.0860878 0.0305 0 100 0
0.0123366 0.0987012 0.0305 0 100 0
0.170783 0.104676 0.0305 0 100 0
0.243491 0.102946 0.0305 0 100 0
-0.0126003 0.0790526 0.0305 0 100 0
0.266866 0.119313 0.0305 0 100 0
0.00865034 0.0848238 0.0305 0 100 0
0.0553305 0.0800481 0.0305 0 100 0
0.219192 0.080221 0.0305 0 100 0
0.261155 0.110092 0.0305 0 100 0
0.226339 0.103605 0.0305 0 100 0
0.00312757 0.0830485 0.0305 0 100 0
0.176736 0.089543 0.0305 0 100 0
-0.0296429 0.0891138 0.0305 0 100 0
0.0803028 0.0929225 0.0305 0 100 0
0.293704 0.0816837 0.0305 0 100 0
0.0922197 0.101341 0.0305 0 100 0
0.205537 0.0847842 0.0305 255 0 0
0.27737 0.0959403 0.0305 0 100 0
0.00694151 0.0953302 0.0305 0 100 0
-0.0338772 0.0946362 0.0305 0 100 0
0.0473496 0.101676 0.0305 0 100 0
0.0428855 0.0864547 0.0305 0 100 0
0.00379217 0.105555 0.0305 0 100 0
0.237749 0.0949666 0.0305 0 100 0
0.018349 0.0945304 0.0305 0 100 0
0.111261 0.116956 0.0305 0 100 0
0.0250838 0.0847433 0.0305 0 100 0
0.241257 0.109275 0.0305 0 100 0
0.0770795 0.110377 0.0305 0 100 0
0.161695 0.0813538 0.0305 0 100 0
0.197494 0.111136 0.0305 0 100 0
0.101368 0.0974692 0.0305 0 100 0
0.140169 0.105206 0.0305 0 100 0
0.0128738 0.0803 0.0305 0 100 0
0.213652 0.0867276 0.0305 255 0 0
0.040197 0.102727 0.0305 0 100 0
0.198434 0.104486 0.0305 0 100 0
0.0669925 0.0794922 0.0305 0 100 0
0.216536 0.0957394 0.0305 0 100 0
0.149774 0.0863152 0.0305 0 100 0
0.212887 0.108016 0.0305 255 0 0
0.173721 0.110116 0.0305 0 100 0
0.0396255 0.110001 0.0305 0 100 0
0.202401 0.105425 0.0305 0 100 0
0.295451 0.0761177 0.0305 0 100 0
0.0404677 0.088376 0.0305 0 100 0
-0.0204004 0.0853918 0.0305 0 100 0
0.0367492 0.0877619 0.0305 0 100 0
0.195419 0.111882 0.0305 0 100 0
0.165244 0.0883801 0.0305 0 100 0
0.241316 0.124363 0.0305 0 100 0
-0.012709 0.108473 0.0305 0 100 0
0.241554 0.113413 0.0305 0 100 0
0.0496868 0.100589 0.0305 0 100 0
0.159233 0.109539 0.0305 0 100 0
0.301775 0.118974 0.0305 0 100 0
0.142239 0.0984156 0.0305 0 100 0
0.191779 0.0932467 0.0305 0 100 0
0.147794 0.101146 0.0305 0 100 0
0.257855 0.0904276 0.0305 0 100 0
0.237483 0.121711 0.0305 0 100 0
0.176792 0.0872281 0.0305 0 100 0
0.00165187 0.114766 0.0305 0 100 0
-0.00478287 0.114291 0.0305 0 100 0
0.221527 0.104832 0.0305 0 100 0
0.274754 0.111449 0.0305 0 100 0
-0.0239555 0.0880015 0.0305 0 100 0
0.183838 0.083362 0.0305 0 100 0
0.148306 0.0799956 0.0305 0 100 0
-0.00257026 0.0771647 0.0305 0 100 0
0.080669 0.0842389 0.0305 0 100 0
0.120176 0.123583 0.0305 0 100 0
0.0612147 0.0879487 0.0305 0 100 0
0.152198 0.107518 0.0305 0 100 0
0.206534 0.103607 0.0305 255 0 0
0.184105 0.124036 0.0305 0 100 0
-0.0223955 0.104134 0.0305 0 100 0
0.177438 0.0906381 0.0305 0 100 0
0.144715 0.0837656 0.0305 0 100 0
0.0402002 0.0888778 0.0305 0 100 0
0.199325 0.0777621 0.0305 0 100 0
0.178243 0.0955266 0.0305 0 100 0
0.185818 0.0771548 0.0305 0 100 0
0.25169 0.0978325 0.0305 0 100 0
-0.0210651 0.0873863 0.0305 0 100 0
0.228539 0.0761853 0.0305 0 100 0
0.116913 0.101557 0.0305 0 100 0
0.110217 0.121558 0.0305 0 100 0
0.0414562 0.0796686 0.0305 0 100 0
0.195624 0.116438 0.0305 0 100 0
0.11601 0.101046 0.0305 0 100 0
-0.0170104 0.0770505 0.0305 0 100 0
0.204106 0.0973583 0.0305 0 100 0
-0.0216846 0.0819001 0.0305 0 100 0
0.0154842 0.110068 0.0305 0 100 0
0.0926227 0.0957067 0.0305 0 100 0
-0.0363845 0.0859216 0.0305 0 100 0
0.306861 0.091943 0.0305 0 100 0
0.119056 0.124115 0.0305 0 100 0
0.0813959 0.120137 0.0305 0 100 0
-0.00881646 0.082216 0.0305 0 100 0
0.0959219 0.108237 0.0305 0 100 0
0.033493 0.11746 0.0305 0 100 0
0.211379 0.0776367 0.0305 255 0 0
0.00244409 0.112795 0.0305 0 100 0
0.0365534 0.103073 0.0305 0 100 0
0.054061 0.0802054 0.0305 0 100 0
0.0247835 0.0819235 0.0305 0 100 0
0.291009 0.103581 0.0305 0 100 0
0.118042 0.0942328 0.0305 0 100 0
0.246982 0.0779637 0.0305 0 100 0
0.0206517 0.113672 0.0305 0 100 0
0.0332658 0.08574 0.0305 0 100 0
0.155377 0.123958 0.0305 0 100 0
0.21527 0.104462 0.0305 0 100 0
0.256991 0.0968232 0.0305 0 100 0
0.292534 0.0850014 0.0795 0 100 0
0.228141 0.110472 0.0795 0 100 0
-0.0209182 0.085712 0.0795 0 100 0
0.0312211 0.117032 0.0795 0 100 0
-0.0239106 0.085434 0.0795 0 100 0
0.0573005 0.119193 0.0795 0 100 0
0.146353 0.0964248 0.0795 0 100 0
0.220709 0.115746 0.0795 0 100 0
0.0539851 0.114151 0.0795 0 100 0
0.131433 0.0797019 0.0795 0 100 0
0.278669 0.0943235 0.0795 0 100 0
0.30094 0.0996913 0.0795 0 100 0
0.305255 0.0954278 0.0795 0 100 0
0.299214 0.0755084 0.0795 0 100 0
0.0516227 0.0913245 0.0795 0 100 0
0.0944403 0.0786144 0.0795 0 100 0
0.24503 0.0987417 0.0795 0 100 0
0.0847207 0.0829179 0.0795 0 100 0
0.274546 0.0844611 0.0795 0 100 0
0.251668 0.0965807 0.0795 0 100 0
0.10861 0.0761046 0.0795 0 100 0
0.213987 0.107025 0.0795 255 0 0
-0.0100599 0.103282 0.0795 0 100 0
0.0754556 0.123972 0.0795 0 100 0
0.0136737 0.0798086 0.0795 0 100 0
0.0590154 0.121404 0.0795 0 100 0
0.263018 0.0888417 0.0795 0 100 0
0.0161808 0.116757 0.0795 0 100 0
-0.0327386 0.0825941 0.0795 0 100 0
-0.00341985 0.102732 0.0795 0 100 0
0.291768 0.101859 0.0795 0 100 0
0.258648 0.110883 0.0795 0 100 0
0.0868471 0.11206 0.0795 0 100 0
0.288786 0.089391 0.0795 0 100 0
-0.0129312 0.109407 0.0795 0 100 0
0.0225031 0.097315 0.0795 0 100 0
0.101793 0.0951534 0.0795 0 100 0
0.120315 0.0972742 0.0795 0 100 0
0.240683 0.0771558 0.0795 0 100 0
0.0776754 0.096836 0.0795 0 100 0
0.115981 0.10116 0.0795 0 100 0
0.10301 0.0915181 0.0795 0 100 0
0.183108 0.10651 0.0795 0 100 0
0.0687422 0.100955 0.0795 0 100 0
0.211126 0.12176 0.0795 255 0 0
0.301076 0.110226 0.0795 0 100 0
0.27645 0.105778 0.0795 0 100 0
0.051008 0.0867414 0.0795 0 100 0
0.0969178 0.0863126 0.0795 0 100 0
0.194227 0.113559 0.0795 0 100 0
0.289366 0.1026 0.0795 0 100 0
0.147244 0.108609 0.0795 0 100 0
-0.0341155 0.0876319 0.0795 0 100 0
-0.0352904 0.100849 0.0795 0 100 0
0.18739 0.091244 0.0795 0 100 0
0.260953 0.0798786 0.0795 0 100 0
0.0525261 0.115376 0.0795 0 100 0
-0.0337069 0.0761519 0.0795 0 100 0
0.241567 0.102926 0.0795 0 100 0
0.0399405 0.123025 0.0795 0 100 0
0.0545769 0.0947432 0.0795 0 100 0
0.306026 0.0758503 0.0795 0 100 0
0.034263 0.0826066 0.0795 0 100 0
0.190513 0.0876226 0.0795 0 100 0
0.216362 0.103117 0.0795 0 100 0
0.02617 0.0848133 0.0795 0 100 0
0.115083 0.113814 0.0795 0 100 0
0.0426646 0.0890279 0.0795 0 100 0
0.12895 0.114359 0.0795 0 100 0
-0.0312836 0.112819 0.0795 0 100 0
0.232551 0.0801993 0.0795 0 100 0
0.280794 0.0984193 0.0795 0 100 0
-0.0156329 0.111359 0.0795 0 100 0
0.144573 0.0960565 0.0795 0 100 0
0.240382 0.0829832 0.0795 0 100 0
0.0780971 0.0832893 0.0795 0 100 0
0.285387 0.0971334 0.0795 0 100 0
-0.0284864 0.103145 0.0795 0 100 0
0.290447 0.0977898 0.0795 0 100 0
0.0779246 0.103491 0.0795 0 100 0
0.240715 0.0785488 0.0795 0 100 0
0.262927 0.104637 0.0795 0 100 0
0.291905 0.111912 0.0795 0 100 0
0.141891 0.0906149 0.0795 0 100 0
0.00254446 0.094716 0.0795 0 100 0
0.0671813 0.0889423 0.0795 0 100 0
0.26523 0.111882 0.0795 0 100 0
0.153322 0.115713 0.0795 0 100 0
0.12821 0.109431 0.0795 0 100 0
0.0366975 0.111756 0.0795 0 100 0
-0.0369887 0.0829045 0.0795 0 100 0
-0.0371178 0.123984 0.0795 0 100 0
0.210495 0.0962392 0.0795 255 0 0
0.159168 0.110911 0.0795 0 100 0
0.0727915 0.101328 0.0795 0 100 0
0.188403 0.0814758 0.0795 0 100 0
-0.00349322 0.115601 0.0795 0 100 0
0.24242 0.0835155 0.0795 0 100 0
0.0461319 0.10311 0.0795 0 100 0
0.163033 0.123188 0.0795 0 100 0
0.0360092 0.107809 0.0795 0 100 0
0.22554 0.121635 0.0795 0 100 0
0.307081 0.0910977 0.0795 0 100 0
0.24588 0.101197 0.0795 0 100 0
0.147682 0.0996931 0.0795 0 100 0
0.0310293 0.109373 0.0795 0 100 0
0.0269371 0.102562 0.0795 0 100 0
0.0923835 0.105968 0.0795 0 100 0
0.228532 0.0793585 0.0795 0 100 0
0.00151936 0.120416 0.0795 0 100 0
0.0338023 0.107478 0.0795 0 100 0
0.250568 0.0891057 0.0795 0 100 0
0.098228 0.0972495 0.0795 0 100 0
0.0543899 0.119244 0.0795 0 100 0
0.29388 0.106019 0.0795 0 100 0
0.0980583 0.0992465 0.0795 0 100 0
0.248794 0.120948 0.0795 0 100 0
-0.0129436 0.114762 0.0795 0 100 0
-0.000299452 0.106187 0.0795 0 100 0
0.191672 0.100763 0.0795 0 100 0
0.308019 0.0833159 0.0795 0 100 0
0.155891 0.0833308 0.0795 0 100 0
-0.00740469 0.110057 0.0795 0 100 0
0.228019 0.117464 0.0795 0 100 0
0.00729582 0.112404 0.0795 0 100 0
0.303015 0.0797756 0.0795 0 100 0
-0.00501711 0.116766 0.0795 0 100 0
0.122833 0.0768953 0.0795 0 100 0
0.121515 0.0802137 0.0795 0 100 0
0.179987 0.106084 0.0795 0 100 0
0.0690815 0.0816006 0.0795 0 100 0
0.173797 0.104738 0.0795 0 100 0
0.267888 0.0798611 0.0795 0 100 0
0.208092 0.0914946 0.0795 255 0 0
0.0713705 0.107655 0.0795 0 100 0
0.175256 0.085128 0.0795 0 100 0
0.296044 0.0816112 0.0795 0 100 0
0.241647 0.0756676 0.0795 0 100 0
-0.0323069 0.0874153 0.0795 0 100 0
0.0939571 0.0819763 0.0795 0 100 0
0.0973097 0.0881217 0.0795 0 100 0
0.291272 0.118527 0.0795 0 100 0
0.269814 0.0773171 0.0795 0 100 0
0.276448 0.0944593 0.0795 0 100 0
0.122027 0.113288 0.0795 0 100 0
0.293883 0.0909367 0.0795 0 100 0
-0.00504082 0.0923835 0.0795 0 100 0
0.237271 0.118774 0.0795 0 100 0
0.232062 0.105926 0.0795 0 100 0
0.219893 0.0854935 0.0795 0 100 0
0.0265271 0.0813018 0.0795 0 100 0
0.125057 0.0887703 0.0795 0 100 0
0.178674 0.12438 0.0795 0 100 0
0.22818 0.0928645 0.0795 0 100 0
0.0646173 0.095906 0.0795 0 100 0
0.242872 0.0859526 0.0795 0 100 0
0.0722219 0.123794 0.0795 0 100 0
0.198292 0.10582 0.0795 0 100 0
0.0977327 0.0851939 0.0795 0 100 0
0.174509 0.108433 0.0795 0 100 0
0.0492755 0.101151 0.0795 0 100 0
0.0223007 0.102284 0.0795 0 100 0
0.0484989 0.0794681 0.0795 0 100 0
0.0382644 0.103604 0.0795 0 100 0
0.0271925 0.100206 0.0795 0 100 0
0.269029 0.123714 0.0795 0 100 0
-0.0380432 0.0804479 0.0795 0 100 0
0.252375 0.0972529 0.0795 0 100 0
-0.0213225 0.116655 0.0795 0 100 0
0.158442 0.120665 0.0795 0 100 0
0.210444 0.0888913 0.0795 255 0 0
-0.0395 0.0840632 0.0377224 0 100 0
-0.0395 0.0766804 0.0701408 0 100 0
-0.0395 0.114505 0.0477713 0 100 0
-0.0395 0.112847 0.0526072 0 100 0
-0.0395 0.0805653 0.0761584 0 100 0
-0.0395 0.090531 0.0351575 0 100 0
-0.0395 0.0973704 0.0794803 0 100 0
-0.0395 0.088755 0.0553993 0 100 0
-0.0395 0.0967381 0.0715857 0 100 0
-0.0395 0.110458 0.0463995 0 100 0
-0.0395 0.107947 0.0745997 0 100 0
-0.0395 0.111473 0.068897 0 100 0
-0.0395 0.0993059 0.0720851 0 100 0
-0.0395 0.0964926 0.0700275 0 100 0
-0.0395 0.119952 0.0624977 0 100 0
-0.0395 0.123278 0.0388297 0 100 0
-0.0395 0.0774531 0.0565277 0 100 0
-0.0395 0.104518 0.0327438 0 100 0
-0.0395 0.120234 0.0678769 0 100 0
-0.0395 0.094574 0.0576296 0 100 0
-0.0395 0.0920356 0.0640193 0 100 0
-0.0395 0.0814521 0.0439669 0 100 0
-0.0395 0.114566 0.0325269 0 100 0
-0.0395 0.0768666 0.0718275 0 100 0
0.3095 0.10456 0.0474982 0 100 0
0.3095 0.100429 0.0766649 0 100 0
0.3095 0.12302 0.0514854 0 100 0
0.3095 0.111484 0.0358614 0 100 0
0.3095 0.120348 0.0493768 0 100 0
0.3095 0.0793636 0.0380303 0 100 0
0.3095 0.101164 0.0520664 0 100 0
0.3095 0.0890115 0.0524475 0 100 0
0.3095 0.0904221 0.0595934 0 100 0
0.3095 0.0807469 0.0427274 0 100 0
0.3095 0.120981 0.0349097 0 100 0
0.3095 0.114606 0.0313068 0 100 0
0.3095 0.0963377 0.0531619 0 100 0
0.3095 0.0988804 0.0705877 0 100 0
0.3095 0.0847174 0.0369248 0 100 0
0.3095 0.110439 0.0469451 0 100 0
0.3095 0.0910182 0.0663839 0 100 0
0.3095 0.0933946 0.0382378 0 100 0
0.3095 0.123408 0.0429183 0 100 0
0.3095 0.0964183 0.0669617 0 100 0
0.3095 0.101559 0.0493741 0 100 0
0.3095 0.100516 0.0740469 0 100 0
0.3095 0.084653 0.0679611 0 100 0
0.3095 0.0972055 0.0772489 0 100 0
0.0362485 0.1245 0.0614967 0 100 0
0.212903 0.1245 0.0370656 255 0 0
0.0310647 0.1245 0.0768212 0 100 0
0.238091 0.1245 0.0559913 0 100 0
0.281682 0.1245 0.065171 0 100 0
0.154123 0.1245 0.0771162 0 100 0
0.255061 0.1245 0.0623957 0 100 0
0.00915794 0.1245 0.0445211 0 100 0
0.226568 0.1245 0.03171 0 100 0
0.294712 0.1245 0.04695 0 100 0
0.00480662 0.1245 0.0585043 0 100 0
0.098374 0.1245 0.0467176 0 100 0
0.265466 0.1245 0.0377863 0 100 0
0.285189 0.1245 0.06165 0 100 0
-0.0386233 0.1245 0.0473652 0 100 0
0.263988 0.1245 0.0510524 0 100 0
0.221825 0.1245 0.0339728 0 100 0
0.30007 0.1245 0.0611582 0 100 0
0.0521548 0.1245 0.0394665 0 100 0
0.0137629 0.1245 0.0381064 0 100 0
0.0368597 0.1245 0.0742411 0 100 0
0.263593 0.1245 0.0650358 0 100 0
0.00403535 0.1245 0.0779042 0 100 0
0.0608827 0.1245 0.0650378 0 100 0
0.0439695 0.1245 0.0614942 0 100 0
0.191947 0.1245 0.0441512 0 100 0
-0.00482247 0.1245 0.0469907 0 100 0
0.242051 0.1245 0.0312057 0 100 0
0.0628769 0.1245 0.0336495 0 100 0
0.0350294 0.1245 0.0366577 0 100 0
0.082075 0.1245 0.0658558 0 100 0
0.299375 0.1245 0.0502631 0 100 0
-0.0112327 0.1245 0.0328889 0 100 0
0.0784224 0.1245 0.0567741 0 100 0
0.0984414 0.1245 0.0590009 0 100 0
0.210667 0.1245 0.0562228 255 0 0
0.15843 0.1245 0.0640959 0 100 0
0.211023 0.1245 0.040236 255 0 0
0.129046 0.1245 0.069151 0 100 0
0.281939 0.1245 0.0368218 0 100 0
0.124311 0.1245 0.078571 0 100 0
0.109607 0.1245 0.0354968 0 100 0
0.295656 0.1245 0.0670277 0 100 0
0.30711 0.1245 0.0547653 0 100 0
0.0294878 0.1245 0.0730967 0 100 0
0.0485256 0.1245 0.0543842 0 100 0
0.131285 0.1245 0.0489619 0 100 0
0.233214 0.1245 0.0453914 0 100 0
0.197315 0.1245 0.033153 0 100 0
0.213203 0.1245 0.0381348 255 0 0
0.199685 0.1245 0.0711966 0 100 0
0.237693 0.1245 0.0507244 0 100 0
-0.0220786 0.1245 0.0537843 0 100 0
-0.0194179 0.1245 0.0744563 0 100 0
0.00925744 0.1245 0.0656739 0 100 0
0.294837 0.1245 0.0331447 0 100 0
0.0439887 0.1245 0.0311223 0 100 0
0.109058 0.1245 0.0604342 0 100 0
2.92296e-05 0.1245 0.0746183 0 100 0
0.162008 0.1245 0.0723093 0 100 0
0.290794 0.1245 0.0642032 0 100 0
-0.0113758 0.1245 0.0672709 0 100 0
0.252609 0.1245 0.0389471 0 100 0
0.17285 0.1245 0.037088 0 100 0
0.117141 0.1245 0.073285 0 100 0
0.264363 0.1245 0.0591734 0 100 0
0.162891 0.1245 0.0661977 0 100 0
0.221729 0.1245 0.0748457 0 100 0
0.109669 0.1245 0.0378095 0 100 0
0.131887 0.1245 0.0569686 0 100 0
0.177292 0.1245 0.0609754 0 100 0
0.0141612 0.1245 0.0359246 0 100 0
-0.0145383 0.1245 0.0534225 0 100 0
0.197282 0.1245 0.0654007 0 100 0
0.091695 0.1245 0.0534764 0 100 0
0.0336482 0.1245 0.071955 0 100 0
-0.0254124 0.1245 0.055006 0 100 0
0.264229 0.1245 0.0493273 0 100 0
0.2251 0.1245 0.0358769 0 100 0
0.0949963 0.1245 0.0328105 0 100 0
0.0273143 0.1245 0.0665338 0 100 0
0.0272725 0.1245 0.0652973 0 100 0
0.159951 0.1245 0.0542285 0 100 0
0.179912 0.1245 0.068752 0 100 0
0.188008 0.1245 0.0483624 0 100 0
0.166737 0.1245 0.0679833 0 100 0
0.00655671 0.1245 0.0621256 0 100 0
0.0382571 0.1245 0.0559171 0 100 0
0.265659 0.1245 0.0713644 0 100 0
-0.0196703 0.1245 0.0590365 0 100 0
0.0369181 0.1245 0.058534 0 100 0
0.156975 0.1245 0.0334624 0 100 0
0.305098 0.1245 0.0739417 0 100 0
0.291655 0.1245 0.0447112 0 100 0
0.000586513 0.1245 0.0505777 0 100 0
0.196599 0.1245 0.051758 0 100 0
0.27756 0.1245 0.0785819 0 100 0
0.124287 0.1245 0.0717098 0 100 0
0.0651413 0.1245 0.0752209 0 100 0
0.28715 0.1245 0.0333609 0 100 0
0.0310655 0.1245 0.0330848 0 100 0
0.263755 0.1245 0.0354778 0 100 0
0.22019 0.1245 0.0788537 0 100 0
0.157651 0.1245 0.0417612 0 100 0
0.0673188 0.1245 0.0340486 0 100 0
0.113709 0.1245 0.0450863 0 100 0
0.307949 0.1245 0.0520269 0 100 0
0.223008 0.1245 0.0665008 0 100 0
0.112166 0.1245 0.0594215 0 100 0
0.187381 0.1245 0.0440652 0 100 0
0.172116 0.1245 0.0472092 0 100 0
0.0591206 0.1245 0.0390268 0 100 0
-0.0228483 0.1245 0.066517 0 100 0
0.09429 0.1245 0.0407407 0 100 0
-0.0365257 0.1245 0.0465764 0 100 0
0.184672 0.1245 0.0426769 0 100 0
-0.0338999 0.1245 0.0755073 0 100 0
0.231633 0.1245 0.0455642 0 100 0
0.051576 0.1245 0.0631091 0 100 0
-0.0277715 0.1245 0.0628662 0 100 0
0.277331 0.1245 0.0643973 0 100 0
0.0617679 0.1245 0.0669358 0 100 0
0.0984637 0.1245 0.0435998 0 100 0
0.0696084 0.1245 0.0491731 0 100 0
-0.0393287 0.1245 0.0584078 0 100 0
0.265184 0.1245 0.0454533 0 100 0
0.0328252 0.1245 0.070307 0 100 0
0.0144087 0.1245 0.0563094 0 100 0
0.0726962 0.1245 0.0410962 0 100 0
0.097627 0.1245 0.0335129 0 100 0
0.0707573 0.1245 0.0592266 0 100 0
-0.0319893 0.1245 0.062279 0 100 0
0.0047072 0.1245 0.0452109 0 100 0
0.20565 0.1245 0.0577487 255 0 0
0.188389 0.1245 0.0487779 0 100 0
0.123606 0.1245 0.0774059 0 100 0
0.108504 0.1245 0.0405826 0 100 0
0.220157 0.1245 0.0475153 0 100 0
0.0135763 0.1245 0.0597888 0 100 0
0.154465 0.1245 0.0315623 0 100 0
0.190063 0.1245 0.057838 0 100 0
0.165092 0.1245 0.0774167 0 100 0
0.224416 0.1245 0.0444594 0 100 0
0.19051 0.1245 0.0790586 0 100 0
0.224021 0.1245 0.0553701 0 100 0
0.0749082 0.1245 0.0412176 0 100 0
0.279677 0.1245 0.0705572 0 100 0
0.11518 0.1245 0.0781971 0 100 0
0.0603933 0.1245 0.050014 0 100 0
0.276664 0.1245 0.0489096 0 100 0
0.0662127 0.1245 0.0528086 0 100 0
0.106018 0.1245 0.0768365 0 100 0
0.306093 0.1245 0.0601609 0 100 0
-0.00352583 0.1245 0.0332156 0 100 0
0.115621 0.1245 0.0659318 0 100 0
0.266364 0.1245 0.0381503 0 100 0
0.251874 0.1245 0.0649254 0 100 0
0.296291 0.1245 0.0453145 0 100 0
0.0193532 0.1245 0.0421868 0 100 0
0.0900204 0.1245 0.0512811 0 100 0
0.105449 0.1245 0.0713213 0 100 0
0.219287 0.1245 0.0582411 0 100 0
0.00573187 0.1245 0.0442196 0 100 0
-0.0238004 0.1245 0.0793432 0 100 0
0.241472 0.1245 0.0555511 0 100 0
0.216298 0.1245 0.063574 0 100 0
-0.0204521 0.1245 0.056926 0 100 0
0.289414 0.1245 0.0662678 0 100 0
-0.0232164 0.1245 0.0431585 0 100 0
0.12255 0.1245 0.0315622 0 100 0
0.276326 0.1245 0.0574371 0 100 0
0.169503 0.0755 0.0410579 0 100 0
0.116112 0.0755 0.0305062 0 100 0
0.122258 0.0755 0.0624806 0 100 0
0.0013978 0.0755 0.0514301 0 100 0
0.213795 0.0755 0.0766815 255 0 0
0.237247 0.0755 0.0514853 0 100 0
0.123449 0.0755 0.0333947 0 100 0
0.0843685 0.0755 0.044128 0 100 0
0.0734039 0.0755 0.0534588 0 100 0
0.258493 0.0755 0.0531349 0 100 0
0.195127 0.0755 0.0742751 0 100 0
0.267976 0.0755 0.0724061 0 100 0
0.249526 0.0755 0.0669124 0 100 0
0.166694 0.0755 0.0694387 0 100 0
0.16317 0.0755 0.0368063 0 100 0
0.0827288 0.0755 0.0566286 0 100 0
-0.00539934 0.0755 0.0476724 0 100 0
0.0402448 0.0755 0.0566508 0 100 0
-0.0353304 0.0755 0.0353265 0 100 0
0.222859 0.0755 0.0309121 0 100 0
0.174759 0.0755 0.072928 0 100 0
0.0936032 0.0755 0.0716773 0 100 0
0.0096607 0.0755 0.0767815 0 100 0
-0.0290227 0.0755 0.0458387 0 100 0
0.094177 0.0755 0.0768386 0 100 0
0.0778226 0.0755 0.0783535 0 100 0
0.243159 0.0755 0.0323564 0 100 0
0.22678 0.0755 0.0386799 0 100 0
0.159749 0.0755 0.065279 0 100 0
0.305507 0.0755 0.0593435 0 100 0
0.0411093 0.0755 0.0770497 0 100 0
0.208382 0.0755 0.0481947 255 0 0
-0.030954 0.0755 0.0372702 0 100 0
0.157518 0.0755 0.0734243 0 100 0
0.25598 0.0755 0.0429256 0 100 0
0.30079 0.0755 0.0612724 0 100 0
0.148736 0.0755 0.0564052 0 100 0
0.145395 0.0755 0.0389896 0 100 0
0.10186 0.0755 0.0700111 0 100 0
0.232286 0.0755 0.0791886 0 100 0
0.222565 0.0755 0.043871 0 100 0
0.279404 0.0755 0.0482259 0 100 0
0.0864616 0.0755 0.0646291 0 100 0
0.0928441 0.0755 0.0385174 0 100 0
0.206553 0.0755 0.0308254 255 0 0
0.247782 0.0755 0.0429686 0 100 0
0.189512 0.0755 0.0675953 0 100 0
0.012698 0.0755 0.0528981 0 100 0
0.256294 0.0755 0.0688953 0 100 0
0.111543 0.0755 0.0645812 0 100 0
0.101794 0.0755 0.030969 0 100 0
0.170447 0.0755 0.0694856 0 100 0
0.263236 0.0755 0.0356965 0 100 0
0.114201 0.0755 0.0469274 0 100 0
0.105896 0.0755 0.0497443 0 100 0
0.287714 0.0755 0.0533536 0 100 0
0.0297324 0.0755 0.0725668 0 100 0
0.244929 0.0755 0.0515039 0 100 0
0.291361 0.0755 0.0443808 0 100 0
0.001099 0.0755 0.0740015 0 100 0
0.0620363 0.0755 0.0789609 0 100 0
0.157471 0.0755 0.0597478 0 100 0
-0.0168888 0.0755 0.0547502 0 100 0
0.0432059 0.0755 0.0582375 0 100 0
0.167019 0.0755 0.0746245 0 100 0
0.241307 0.0755 0.062123 0 100 0
0.09108 0.0755 0.0545982 0 100 0
0.0677297 0.0755 0.066332 0 100 0
-0.0299753 0.0755 0.0379721 0 100 0
-0.0126388 0.0755 0.0510823 0 100 0
0.121446 0.0755 0.0742626 0 100 0
0.182812 0.0755 0.0474412 0 100 0
0.00754896 0.0755 0.0728154 0 100 0
0.132461 0.0755 0.0370197 0 100 0
0.26943 0.0755 0.0740408 0 100 0
0.175123 0.0755 0.0394212 0 100 0
0.174233 0.0755 0.0762187 0 100 0
0.167146 0.0755 0.0517972 0 100 0
0.0874036 0.0755 0.0523054 0 100 0
0.027857 0.0755 0.0566412 0 100 0
0.00268096 0.0755 0.036345 0 100 0
0.0270977 0.0755 0.0377887 0 100 0
0.26518 0.0755 0.054344 0 100 0
0.0385039 0.0755 0.0676319 0 100 0
-0.0191937 0.0755 0.0417722 0 100 0
0.0761406 0.0755 0.0438726 0 100 0
0.149342 0.0755 0.0525243 0 100 0
0.207544 0.0755 0.0454197 255 0 0
-0.0145309 0.0755 0.0752951 0 100 0
0.224842 0.0755 0.0772849 0 100 0
0.28009 0.0755 0.0343022 0 100 0
0.0452932 0.0755 0.0734192 0 100 0
0.198658 0.0755 0.042085 0 100 0
-0.012095 0.0755 0.0680996 0 100 0
0.295986 0.0755 0.070075 0 100 0
0.024151 0.0755 0.0660904 0 100 0
0.0978933 0.0755 0.0700983 0 100 0
0.155421 0.0755 0.068863 0 100 0
0.148673 0.0755 0.0747231 0 100 0
0.0940769 0.0755 0.0423298 0 100 0
0.0174074 0.0755 0.0368959 0 100 0
0.0172576 0.0755 0.073994 0 100 0
0.196678 0.0755 0.0645751 0 100 0
0.0267896 0.0755 0.0521951 0 100 0
0.256915 0.0755 0.0740315 0 100 0
0.0961106 0.0755 0.0456856 0 100 0
0.163371 0.0755 0.0739142 0 100 0
0.0142132 0.0755 0.0323869 0 100 0
-0.00541665 0.0755 0.0377555 0 100 0
0.186361 0.0755 0.0493375 0 100 0
0.141361 0.0755 0.0495047 0 100 0
0.0325419 0.0755 0.0775501 0 100 0
0.012686 0.0755 0.0628086 0 100 0
0.034463 0.0755 0.0441189 0 100 0
-0.00440363 0.0755 0.0536567 0 100 0
0.0593271 0.0755 0.0547913 0 100 0
0.287549 0.0755 0.0598252 0 100 0
0.12369 0.0755 0.0447287 0 100 0
0.154544 0.0755 0.0364642 0 100 0
0.132158 0.0755 0.0453725 0 100 0
0.0233968 0.0755 0.0767517 0 100 0
0.171936 0.0755 0.0378438 0 100 0
0.127903 0.0755 0.0505096 0 100 0
0.0504661 0.0755 0.0671036 0 100 0
0.148553 0.0755 0.0571568 0 100 0
0.179943 0.0755 0.0528687 0 100 0
0.194212 0.0755 0.0596686 0 100 0
0.257596 0.0755 0.0659061 0 100 0
0.250768 0.0755 0.0570321 0 100 0
0.257819 0.0755 0.0351603 0 100 0
0.170432 0.0755 0.0388873 0 100 0
0.0686795 0.0755 0.0372175 0 100 0
0.101412 0.0755 0.0723478 0 100 0
-0.000288675 0.0755 0.0741368 0 100 0
0.19654 0.0755 0.0707563 0 100 0
0.130603 0.0755 0.0389507 0 100 0
0.29992 0.0755 0.0572141 0 100 0
0.0554733 0.0755 0.0427133 0 100 0
0.0249034 0.0755 0.0771796 0 100 0
0.0193127 0.0755 0.0428859 0 100 0
0.168681 0.0755 0.0521433 0 100 0
0.258789 0.0755 0.0362393 0 100 0
-0.0239207 0.0755 0.0767406 0 100 0
0.117488 0.0755 0.0346548 0 100 0
0.000927844 0.0755 0.071803 0 100 0
0.289334 0.0755 0.0730978 0 100 0
0.0800804 0.0755 0.0473961 0 100 0
0.0286735 0.0755 0.0573983 0 100 0
0.0943097 0.0755 0.0457037 0 100 0
0.127051 0.0755 0.0665026 0 100 0
0.253765 0.0755 0.0481966 0 100 0
0.120604 0.0755 0.0680377 0 100 0
-0.0346398 0.0755 0.054095 0 100 0
0.208596 0.0755 0.0716661 255 0 0
0.170817 0.0755 0.0613188 0 100 0
-0.0321898 0.0755 0.0560701 0 100 0
0.304785 0.0755 0.0743694 0 100 0
0.191016 0.0755 0.0375726 0 100 0
-0.0379283 0.0755 0.0443821 0 100 0
0.165178 0.0755 0.0739725 0 100 0
0.00571646 0.0755 0.0456688 0 100 0
0.00560122 0.0755 0.0415832 0 100 0
0.166341 0.0755 0.0555366 0 100 0
0.125971 0.0755 0.0564231 0 100 0
0.14974 0.0755 0.0645241 0 100 0
0.290188 0.0755 0.0667312 0 100 0
-0.0122572 0.0755 0.0705707 0 100 0
0.205158 0.0755 0.0414534 255 0 0
-0.0194493 0.0755 0.0653158 0 100 0
-0.0276921 0.0755 0.0386757 0 100 0
0.230507 0.0755 0.0539589 0 100 0
