ply
format ascii 1.0
comment Created by Open3D
element vertex 1283
property double x
property double y
property double z
property uchar red
property uchar green
property uchar blue
end_header
0.13 -0.0809021 -0.0200598 51 153 255
0.13 0.0389413 -0.0232028 51 153 255
0.13 -0.10145 0.122083 51 153 255
0.13 0.0389046 -0.019452 51 153 255
0.13 0.0777374 -0.0178605 51 153 255
0.13 -0.0695856 0.0354727 51 153 255
0.13 -0.0551129 0.0574059 51 153 255
0.13 0.0967401 0.0755575 51 153 255
0.13 0.0125276 -0.0590812 51 153 255
0.13 -0.105584 -0.0927611 51 153 255
0.13 0.117876 -0.0279821 51 153 255
0.13 -0.105423 -0.0288567 51 153 255
0.13 0.0788615 -0.00626003 51 153 255
0.13 -0.0582815 0.0221841 51 153 255
0.13 -0.0475238 0.0564442 51 153 255
0.13 -0.060729 0.0808987 51 153 255
0.13 -0.0346663 0.0642068 51 153 255
0.13 -0.0448218 0.100635 51 153 255
0.13 0.0887901 0.0862459 51 153 255
0.13 -0.0234693 -0.0934067 51 153 255
0.13 -0.0850743 -0.0887682 51 153 255
0.13 0.117131 0.0669097 51 153 255
0.13 0.0356136 0.0532692 51 153 255
0.13 -0.106973 0.0696769 51 153 255
0.13 -0.0955321 0.0503535 51 153 255
0.13 0.0784588 -0.0303619 51 153 255
0.13 0.0980271 0.0687892 51 153 255
0.13 0.0126417 -0.0508971 51 153 255
0.13 0.0812102 0.0360077 51 153 255
0.13 -0.0466121 -0.115855 51 153 255
0.13 0.106153 -0.105958 51 153 255
0.13 0.0581847 0.0911974 51 153 255
0.13 -0.116027 0.0589741 51 153 255
0.13 -0.0676017 -0.0695784 51 153 255
0.13 -0.004625 -0.0527496 51 153 255
0.13 -0.0197753 -0.109872 51 153 255
0.13 0.101543 -0.112606 51 153 255
0.13 -0.0904721 -0.0920927 51 153 255
0.13 -0.110915 0.113124 51 153 255
0.13 -0.0272631 0.0262791 51 153 255
0.13 0.00437435 -0.0428794 51 153 255
0.13 -0.0481001 -0.0438653 51 153 255
0.13 -0.109295 -0.0637138 51 153 255
0.13 -0.0533152 -0.033335 51 153 255
0.13 0.0459097 0.00759664 51 153 255
0.13 -0.0418336 0.0474668 51 153 255
0.13 0.00693678 -0.114239 51 153 255
0.13 0.0995655 -0.100236 51 153 255
0.13 -0.0298866 0.018484 51 153 255
0.13 -0.0325131 -0.0895442 51 153 255
0.13 0.102154 0.124267 51 153 255
0.13 -0.0948736 -0.0959862 51 153 255
0.13 -0.0675963 0.0701261 51 153 255
0.13 0.0934961 0.0327532 51 153 255
0.13 0.114901 0.0524632 51 153 255
0.13 0.0173661 0.0553023 51 153 255
0.13 -0.0388978 0.113331 51 153 255
0.13 0.00563578 -0.0516058 51 153 255
0.13 -0.0508222 -0.0260443 51 153 255
0.13 -0.124184 -0.0940019 51 153 255
0.13 -0.0781919 -0.0800088 51 153 255
0.13 -0.0677167 -0.0726522 51 153 255
0.13 -0.0245654 0.120834 51 153 255
0.13 0.0982463 -0.036522 51 153 255
0.13 -0.108182 -0.0832718 51 153 255
0.13 0.0464193 0.061154 51 153 255
0.13 -0.0323068 0.0798272 51 153 255
0.13 -0.123641 0.0334723 51 153 255
0.13 -0.0193132 -0.0653386 51 153 255
0.13 -0.120254 0.0644551 51 153 255
0.13 0.05281 0.107627 51 153 255
0.13 0.0809586 -0.0836565 51 153 255
0.13 0.086051 -0.0141144 51 153 255
0.13 0.1095 -0.0862149 51 153 255
0.13 0.0875524 -0.0891465 51 153 255
0.13 0.11801 -0.0601073 51 153 255
0.13 0.11134 0.0831954 51 153 255
0.13 0.0295129 0.049819 51 153 255
0.13 0.0135745 0.116433 51 153 255
0.13 -0.0622234 -0.0563959 51 153 255
0.13 -0.0394644 0.023487 51 153 255
0.13 -0.0124552 0.0802462 51 153 255
0.13 -0.0182401 0.0385081 51 153 255
0.13 -0.0648127 -0.0426126 51 153 255
0.13 -0.00526945 -0.0539027 51 153 255
0.13 -0.114434 -0.0332917 51 153 255
0.13 0.124103 -0.0400165 51 153 255
0.13 -0.103327 -0.00240298 51 153 255
0.13 0.0998964 -0.00747815 51 153 255
0.13 -0.0725385 -0.0303527 51 153 255
0.13 -0.00581877 -0.0351133 51 153 255
0.13 -0.112353 0.0579704 51 153 255
0.13 -0.115658 0.0721592 51 153 255
0.13 0.0501652 -0.0571711 51 153 255
0.13 0.0422021 0.0602486 51 153 255
0.13 -0.0184496 0.018056 51 153 255
0.13 0.100056 -0.00399766 51 153 255
0.13 -0.0915442 -0.0583743 51 153 255
0.13 0.106441 0.113955 51 153 255
0.13 0.0368656 0.00803715 51 153 255
0.13 -0.0268303 -0.0230238 51 153 255
0.13 0.0869172 0.0664604 51 153 255
0.13 0.031224 0.0958417 51 153 255
0.13 0.0161422 0.0347519 51 153 255
0.13 0.118853 -0.0799327 51 153 255
0.13 -0.124256 -0.117456 51 153 255
0.13 -0.00461723 -0.100795 51 153 255
0.13 -0.0840282 0.0445409 51 153 255
0.13 0.0279496 -0.0493447 51 153 255
0.13 0.0525954 -0.00104686 51 153 255
0.13 -0.0207446 -0.0620464 51 153 255
0.13 0.0329501 -0.0544488 51 153 255
0.13 -0.0315131 -0.0826636 51 153 255
0.13 0.0342973 -0.108662 51 153 255
0.13 0.0590719 0.0862156 51 153 255
0.13 0.0918584 0.0271283 51 153 255
0.13 0.0890148 -0.0861134 51 153 255
0.13 0.0767991 -0.0432608 51 153 255
0.13 -0.119166 0.00790565 51 153 255
0.13 0.0175323 -0.0217533 51 153 255
0.13 -0.0326927 -0.07039 51 153 255
0.13 0.119134 0.0101384 51 153 255
0.13 0.0580671 0.00908444 51 153 255
0.13 0.0236409 -0.0922363 51 153 255
0.13 0.0637929 0.101282 51 153 255
0.13 0.0198321 0.000438416 51 153 255
0.13 -0.093364 0.0390814 51 153 255
0.13 -0.0985605 -0.109464 51 153 255
0.13 -0.0747098 -0.109507 51 153 255
0.13 -0.091752 0.0723192 51 153 255
0.13 -0.113697 0.00373267 51 153 255
0.13 0.0218901 -0.0322341 51 153 255
0.13 -0.00980712 -0.112444 51 153 255
0.13 -0.0926802 0.0751751 51 153 255
0.13 -0.0893321 0.11002 51 153 255
0.13 0.0938228 -0.0943363 51 153 255
0.13 0.0577045 0.124791 51 153 255
0.13 0.0681985 0.00428396 51 153 255
0.13 -0.0720056 0.044636 51 153 255
0.13 0.0487329 0.0291233 51 153 255
0.13 0.0256416 -0.0155104 51 153 255
0.13 -0.0935614 0.0208351 51 153 255
0.13 0.0475295 0.0855566 51 153 255
0.13 -0.0539224 0.082399 51 153 255
0.13 -0.0898641 -0.0709989 51 153 255
0.13 -0.0586454 -0.0983139 51 153 255
0.13 -0.000708083 0.0101388 51 153 255
0.13 0.0770579 -0.0710064 51 153 255
0.13 -0.0514127 -0.0211524 51 153 255
0.13 -0.0821809 0.0772893 51 153 255
0.13 -0.0698417 -0.0715437 51 153 255
0.13 0.00397419 0.0723359 51 153 255
0.13 0.0972844 0.00835795 51 153 255
0.13 -0.116479 0.0370921 51 153 255
0.13 -0.06498 -0.0871681 51 153 255
0.13 0.115481 -0.0788177 51 153 255
0.13 0.101561 -0.0135635 51 153 255
0.13 0.0864516 -0.00656131 51 153 255
0.13 0.0833836 0.0224918 51 153 255
0.13 0.106319 -0.0232659 51 153 255
0.13 -0.0137768 0.0286699 51 153 255
0.13 0.0663808 0.116015 51 153 255
0.13 -0.0364511 0.00458209 51 153 255
0.13 0.0562029 0.0721398 51 153 255
0.13 -0.0758588 0.0798964 51 153 255
0.13 0.0189905 0.0940354 51 153 255
0.13 -0.116296 -0.0775929 51 153 255
0.13 -0.0258855 -0.0473166 51 153 255
0.13 0.120317 -0.0380765 51 153 255
0.13 0.116517 -0.0319219 51 153 255
0.13 -0.0889949 0.101033 51 153 255
0.13 -0.108083 -0.0348573 51 153 255
0.13 0.122828 -0.102657 51 153 255
0.13 0.0233693 0.039297 51 153 255
0.13 -0.0131519 0.0406863 51 153 255
0.13 0.0656118 -0.0322907 51 153 255
0.13 -0.1212 0.017262 51 153 255
0.13 0.118607 0.0877588 51 153 255
0.13 0.0650903 0.118797 51 153 255
0.13 0.120243 -0.0627364 51 153 255
0.13 0.10169 0.0280518 51 153 255
0.13 -0.0529551 -0.106307 51 153 255
0.13 -0.0188369 -0.110396 51 153 255
0.13 -0.0623034 0.080634 51 153 255
0.13 0.0699775 -0.0551025 51 153 255
0.13 -0.121767 -0.0766715 51 153 255
0.13 0.0269141 0.0168535 51 153 255
0.13 0.0410042 -0.0713108 51 153 255
0.13 0.11336 0.0709158 51 153 255
0.13 0.0636863 -0.00170245 51 153 255
0.13 0.0461017 0.00976036 51 153 255
0.13 0.0687528 0.0266602 51 153 255
0.13 -0.0456596 -0.0207402 51 153 255
0.13 -0.0341264 -0.00738778 51 153 255
0.13 0.0287224 -0.0477034 51 153 255
0.13 -0.0299395 -0.0903319 51 153 255
0.13 -0.0179389 -0.0643767 51 153 255
0.13 -0.00283113 0.120418 51 153 255
0.13 -0.0026676 0.0153611 51 153 255
0.13 -0.0134687 -0.103746 51 153 255
0.13 0.10973 -0.112929 51 153 255
0.13 0.0248954 0.0892507 51 153 255
0.13 -0.0676473 0.0689328 51 153 255
0.13 -0.043933 -0.032175 51 153 255
0.13 -0.0224379 0.0714239 51 153 255
0.13 -0.0170596 0.106752 51 153 255
0.13 0.0473216 -0.0414804 51 153 255
0.13 0.00975232 0.00334681 51 153 255
0.13 0.0868903 -0.000541625 51 153 255
0.13 -0.124385 -0.0688636 51 153 255
0.13 -0.00536998 0.100061 51 153 255
0.13 -0.036472 0.0612411 51 153 255
0.13 0.108857 -0.0479972 51 153 255
0.13 -0.103975 -0.107335 51 153 255
0.13 -0.0743374 0.0219131 51 153 255
0.13 -0.0953015 0.0768405 51 153 255
0.13 0.0410083 -0.0647327 51 153 255
0.13 0.070559 0.0690884 51 153 255
0.13 -0.0568551 0.112097 51 153 255
0.13 -0.112186 0.0657323 51 153 255
0.13 -0.0340174 0.068798 51 153 255
0.13 -0.0400805 -0.0158309 51 153 255
0.13 0.105538 0.1181 51 153 255
0.13 0.0467912 -0.100904 51 153 255
0.13 -0.0819365 -0.0421531 51 153 255
0.13 0.0776267 -0.0440271 51 153 255
0.13 -0.101482 -0.0586146 51 153 255
0.13 0.117691 0.0326635 51 153 255
0.13 -0.0272131 0.124254 51 153 255
0.13 -0.0224292 -0.000177061 51 153 255
0.13 -0.0403954 -0.0231957 51 153 255
0.13 -0.00200959 -0.114111 51 153 255
0.13 -0.0494782 0.121458 51 153 255
0.13 -0.0722555 0.0342148 51 153 255
0.13 0.118355 -0.0979696 51 153 255
0.13 0.110263 0.1026 51 153 255
0.13 0.0316471 0.116118 51 153 255
0.13 0.0266815 0.0879661 51 153 255
0.13 -0.050509 0.101103 51 153 255
0.13 -0.00105251 -0.00392735 51 153 255
0.13 -0.0734219 -0.0598803 51 153 255
0.13 -0.0326871 0.0066884 51 153 255
0.13 0.0987716 -0.077096 51 153 255
0.13 -0.0333082 -0.0935973 51 153 255
0.13 -0.0857713 -0.0414913 51 153 255
0.13 -0.0122322 -0.106366 51 153 255
0.13 0.0191421 -0.0561587 51 153 255
0.13 -0.0881644 -0.0376041 51 153 255
0.13 0.0833307 -0.00153581 51 153 255
0.13 -0.0701922 0.0395409 51 153 255
0.13 0.0335486 -0.0668113 51 153 255
0.13 0.0307739 -0.122402 51 153 255
0.13 0.0352898 0.11052 51 153 255
0.13 -0.124316 -0.0206741 51 153 255
0.13 -0.100837 0.0878552 51 153 255
0.13 0.111553 0.11606 51 153 255
0.13 -0.0683303 0.00157936 51 153 255
0.13 -0.057855 0.0689268 51 153 255
0.13 -0.00944382 0.0826337 51 153 255
0.13 -0.120494 -0.0828223 51 153 255
0.13 0.0258088 -0.000159468 51 153 255
0.13 -0.00331917 0.0453703 51 153 255
0.13 -0.0765152 0.0329581 51 153 255
0.13 0.0775511 0.106539 51 153 255
0.13 0.115528 -0.117957 51 153 255
0.13 -0.0407569 -0.0344073 51 153 255
0.13 0.0701157 -0.10541 51 153 255
0.13 0.01772 -0.00795108 51 153 255
0.13 0.0337464 0.0599435 51 153 255
0.13 -0.0321638 0.00614629 51 153 255
0.13 0.00387632 -0.0254117 51 153 255
0.13 -0.0675683 0.066918 51 153 255
0.13 0.0556763 0.0866663 51 153 255
0.13 -0.124106 0.0386269 51 153 255
0.13 -0.0149694 -0.112375 51 153 255
0.13 -0.02718 0.0816885 51 153 255
0.13 0.0342959 -0.109385 51 153 255
0.13 0.0889451 0.0950766 51 153 255
0.13 0.00704997 -0.124808 51 153 255
0.13 0.0364791 -0.104954 51 153 255
0.13 -0.017191 -0.0197784 51 153 255
0.13 -0.0962257 0.0762516 51 153 255
0.13 0.0290033 0.102105 51 153 255
0.13 0.0565047 0.0483354 51 153 255
0.13 0.0298601 -0.0878696 51 153 255
0.13 -0.00611908 0.0189447 51 153 255
0.13 -0.0673858 -0.025541 51 153 255
0.13 -0.0706881 0.0414917 51 153 255
0.13 -0.014429 0.0385381 51 153 255
0.13 0.0757069 -0.0382053 51 153 255
0.13 -0.114115 -0.0166836 51 153 255
0.13 -0.0223166 0.0924994 51 153 255
0.13 0.0544365 0.0798689 51 153 255
0.13 0.0772286 0.1069 51 153 255
0.13 -0.041778 -0.090764 51 153 255
0.13 0.109565 -0.0763939 51 153 255
0.13 0.0805463 -0.0725863 51 153 255
0.13 -0.0426332 0.124619 51 153 255
0.13 0.0738232 -0.0384952 51 153 255
0.13 -0.106595 -0.0692884 51 153 255
0.13 -0.0516262 0.113135 51 153 255
0.13 0.111639 -0.0900244 51 153 255
0.13 -0.0363845 0.0962336 51 153 255
0.13 -0.115464 0.0237699 51 153 255
0.13 -0.0200536 -0.109851 51 153 255
0.13 0.123171 -0.0192016 51 153 255
0.13 -0.00178988 -0.0940466 51 153 255
0.13 -0.0769196 0.0476168 51 153 255
0.13 -0.115511 0.0335276 51 153 255
0.13 0.102387 -0.0911127 51 153 255
0.13 0.119396 -0.0441386 51 153 255
0.13 -0.0285291 -0.107241 51 153 255
0.13 0.121385 0.0896063 51 153 255
0.13 0.120462 0.0867893 51 153 255
0.13 -0.0354322 0.0762802 51 153 255
0.13 0.0112918 0.0851228 51 153 255
0.13 -0.0245504 0.021627 51 153 255
0.13 0.0718939 -0.0688958 51 153 255
0.13 0.0276638 0.0497258 51 153 255
0.13 0.121353 0.0837501 51 153 255
0.13 0.0677644 -0.0306665 51 153 255
0.13 -0.0891362 0.0334595 51 153 255
0.13 0.0180448 -0.038719 51 153 255
0.13 -0.103085 0.051458 51 153 255
0.13 -0.0176169 0.0114378 51 153 255
0.13 0.014019 0.0916152 51 153 255
0.13 0.112994 -0.0639101 51 153 255
0.13 0.0965939 -0.0957657 51 153 255
0.13 -0.0861881 0.112599 51 153 255
0.13 0.084594 -0.0248377 51 153 255
0.13 -0.0427067 -0.00229251 51 153 255
0.13 0.0461088 0.0971739 51 153 255
0.13 0.0148489 0.0441155 51 153 255
0.13 -0.0922473 -0.033505 51 153 255
0.13 -0.0456357 0.0362705 51 153 255
0.13 -0.0714002 0.121422 51 153 255
0.13 -0.124851 -0.0327768 51 153 255
0.13 0.0278731 0.120998 51 153 255
0.13 0.0913368 -0.0722145 51 153 255
0.13 -0.110273 0.0721979 51 153 255
0.13 0.0725886 -0.1065 51 153 255
0.13 -0.0178325 -0.054376 51 153 255
0.13 0.0295064 0.09478 51 153 255
0.13 -0.0305829 0.0215872 51 153 255
0.13 -0.0918875 0.0959212 51 153 255
0.13 0.0658136 -0.115759 51 153 255
0.13 -0.0588583 -0.00218158 51 153 255
0.13 -0.108837 -0.105744 51 153 255
0.13 -0.0743119 -0.0489873 51 153 255
0.13 0.0548392 -0.0521052 51 153 255
0.13 -0.0910606 -0.0214326 51 153 255
0.13 0.0250919 -0.0770362 51 153 255
0.13 0.108303 0.095643 51 153 255
0.13 0.0221224 0.106592 51 153 255
0.13 0.0695818 -0.0840148 51 153 255
0.13 -0.102005 0.119548 51 153 255
0.13 -0.0744934 0.0224359 51 153 255
0.13 0.10851 0.0066139 51 153 255
0.13 -0.119252 -0.0616263 51 153 255
0.13 -0.0301408 -0.0910561 51 153 255
0.13 0.0307174 0.0240487 51 153 255
0.13 0.0213071 -0.0112785 51 153 255
0.13 0.0968826 -0.0324576 51 153 255
0.13 -0.0240403 -0.0465836 51 153 255
0.13 -0.0324831 0.108535 51 153 255
0.13 -0.0147848 -0.0171973 51 153 255
0.13 -0.0295039 -0.0660845 51 153 255
0.13 0.0533086 -0.0648739 51 153 255
0.13 0.0635567 -0.0201264 51 153 255
0.13 -0.0706336 -0.0196222 51 153 255
0.13 0.0224537 0.0451714 51 153 255
0.13 0.0859776 -0.103086 51 153 255
0.13 0.113984 0.118778 51 153 255
0.13 0.0340261 0.114867 51 153 255
0.13 0.0588154 -0.0354263 51 153 255
0.13 0.0867624 -0.0267808 51 153 255
0.13 0.0902586 0.0735381 51 153 255
0.13 -0.0117947 -0.0951052 51 153 255
0.13 -0.115772 0.0953946 51 153 255
0.13 -0.0664508 0.0481189 51 153 255
0.13 0.0255385 -0.0584698 51 153 255
0.13 0.062014 -0.0631658 51 153 255
0.13 -0.000822904 -0.0746497 51 153 255
0.13 -0.00546223 0.0925304 51 153 255
0.13 0.111652 0.0327597 51 153 255
0.13 0.0767916 0.0277637 51 153 255
0.13 -0.0841249 -0.11016 51 153 255
0.13 0.109422 0.102481 51 153 255
0.13 0.109302 -0.0184379 51 153 255
0.13 0.00882442 -0.00597243 51 153 255
0.13 0.0904204 -0.0821518 51 153 255
0.13 0.0863425 -0.0838971 51 153 255
0.13 -0.0673134 0.122941 51 153 255
0.13 0.113632 -0.0837029 51 153 255
0.13 -0.0111691 0.0155407 51 153 255
0.13 0.0978842 0.0970726 51 153 255
0.13 -0.114917 -0.0570856 51 153 255
0.13 -0.0865694 0.0124087 51 153 255
0.13 -0.0161464 -0.0970334 51 153 255
0.13 0.0590927 0.0414717 51 153 255
0.129782 0.125 0.120987 51 153 255
0.122346 0.125 0.0739844 51 153 255
0.126922 0.125 0.105933 51 153 255
0.127218 0.125 -0.0883799 51 153 255
0.124921 0.125 -0.0415596 51 153 255
0.125385 0.125 -0.0588552 51 153 255
0.124383 0.125 0.0203116 51 153 255
0.129619 0.125 0.0600705 51 153 255
0.122913 0.125 -0.122338 51 153 255
0.127991 0.125 0.0673882 51 153 255
0.122191 0.125 0.0048195 51 153 255
0.128296 0.125 -0.018009 51 153 255
0.12044 0.125 0.0118666 51 153 255
0.125415 0.125 -0.00153632 51 153 255
0.127762 0.125 -0.0805736 51 153 255
0.128004 0.125 -0.0305359 51 153 255
0.126815 0.125 0.0623071 51 153 255
0.120466 0.125 0.0497766 51 153 255
0.129145 0.125 -0.104654 51 153 255
0.121884 0.125 0.0122247 51 153 255
0.125011 0.125 -0.106445 51 153 255
0.125497 0.125 0.00828646 51 153 255
0.128092 0.125 -0.0249597 51 153 255
0.120422 0.125 0.064289 51 153 255
0.120544 0.125 -0.105294 51 153 255
0.120565 -0.125 -0.0628282 51 153 255
0.121252 -0.125 -0.0913563 51 153 255
0.125966 -0.125 -0.0776123 51 153 255
0.127463 -0.125 0.0503449 51 153 255
0.12276 -0.125 0.0719753 51 153 255
0.125048 -0.125 0.0942425 51 153 255
0.128179 -0.125 -0.0235921 51 153 255
0.123645 -0.125 -0.000212382 51 153 255
0.126103 -0.125 0.0862972 51 153 255
0.123488 -0.125 -0.109234 51 153 255
0.129067 -0.125 -0.0227419 51 153 255
0.12749 -0.125 0.0122975 51 153 255
0.124102 -0.125 -0.0369792 51 153 255
0.125425 -0.125 0.117541 51 153 255
0.120023 -0.125 0.0387511 51 153 255
0.125494 -0.125 0.0784108 51 153 255
0.124893 -0.125 -0.0165267 51 153 255
0.121637 -0.125 0.0526659 51 153 255
0.125345 -0.125 0.0393676 51 153 255
0.122395 -0.125 -0.0383355 51 153 255
0.121417 -0.125 0.101008 51 153 255
0.129099 -0.125 -0.0960299 51 153 255
0.125533 -0.125 0.02822 51 153 255
0.121598 -0.125 0.0741063 51 153 255
0.120238 -0.125 0.124911 51 153 255
-0.0425565 -0.125663 -0.125 51 153 255
0.0368823 -0.128811 -0.125 51 153 255
0.0975572 -0.127437 -0.125 51 153 255
-0.0640261 -0.122144 -0.125 51 153 255
-0.0299572 -0.1255 -0.125 51 153 255
0.0972656 -0.127984 -0.125 51 153 255
-0.0550991 -0.127344 -0.125 51 153 255
-0.107275 -0.12697 -0.125 51 153 255
0.0264784 -0.128052 -0.125 51 153 255
-0.0329623 -0.127876 -0.125 51 153 255
-0.0586493 -0.127639 -0.125 51 153 255
0.0402964 -0.12524 -0.125 51 153 255
0.104447 -0.125129 -0.125 51 153 255
-0.00871682 -0.124525 -0.125 51 153 255
-0.0656164 -0.125599 -0.125 51 153 255
0.0629596 -0.126989 -0.125 51 153 255
-0.0024514 -0.127745 -0.125 51 153 255
-0.00367899 -0.125294 -0.125 51 153 255
-0.0974505 -0.120726 -0.125 51 153 255
-0.0670394 -0.12184 -0.125 51 153 255
-0.0750554 -0.122085 -0.125 51 153 255
-0.0796543 -0.126995 -0.125 51 153 255
0.0356255 -0.121942 -0.125 51 153 255
0.0515293 -0.122786 -0.125 51 153 255
0.0649188 -0.125558 -0.125 51 153 255
-0.102195 -0.127782 0.125 51 153 255
0.069196 -0.124886 0.125 51 153 255
0.00551076 -0.123199 0.125 51 153 255
-0.0471285 -0.126009 0.125 51 153 255
0.0777245 -0.121245 0.125 51 153 255
0.0365959 -0.125106 0.125 51 153 255
0.0308598 -0.12853 0.125 51 153 255
-0.120973 -0.125907 0.125 51 153 255
-0.0831932 -0.124401 0.125 51 153 255
-0.0907049 -0.126428 0.125 51 153 255
0.0656026 -0.124668 0.125 51 153 255
0.0526007 -0.129718 0.125 51 153 255
0.0620371 -0.126778 0.125 51 153 255
-0.0631266 -0.121396 0.125 51 153 255
0.0404735 -0.122502 0.125 51 153 255
0.0404798 -0.127822 0.125 51 153 255
0.123506 -0.122799 0.125 51 153 255
-0.0524271 -0.122287 0.125 51 153 255
0.102054 -0.1255 0.125 51 153 255
0.0243494 -0.129868 0.125 51 153 255
0.111099 -0.123238 0.125 51 153 255
-0.0118553 -0.125733 0.125 51 153 255
-0.0128625 -0.124613 0.125 51 153 255
0.0734676 -0.127288 0.125 51 153 255
0.0324907 -0.125688 0.125 51 153 255
-0.125 -0.127905 0.00550901 51 153 255
-0.125 -0.127399 0.0304381 51 153 255
-0.125 -0.123723 0.0343368 51 153 255
-0.125 -0.127698 0.0138945 51 153 255
-0.125 -0.120349 0.104448 51 153 255
-0.125 -0.129582 -0.0650139 51 153 255
-0.125 -0.124371 0.0148825 51 153 255
-0.125 -0.122424 -0.044197 51 153 255
-0.125 -0.120328 0.0832964 51 153 255
-0.125 -0.129389 0.107945 51 153 255
-0.125 -0.129759 0.124057 51 153 255
-0.125 -0.129967 0.0112218 51 153 255
-0.125 -0.123099 0.076559 51 153 255
-0.125 -0.12262 0.122446 51 153 255
-0.125 -0.129922 0.117604 51 153 255
-0.125 -0.126649 0.0946985 51 153 255
-0.125 -0.12332 -0.011487 51 153 255
-0.125 -0.122196 0.037485 51 153 255
-0.125 -0.125054 -0.118334 51 153 255
-0.125 -0.123335 -0.0443274 51 153 255
-0.125 -0.12898 -0.0381698 51 153 255
-0.125 -0.123579 0.018899 51 153 255
-0.125 -0.125252 0.0806368 51 153 255
-0.125 -0.125528 0.0989413 51 153 255
-0.125 -0.128348 0.0821187 51 153 255
0.125 -0.121812 0.112751 51 153 255
0.125 -0.12438 0.108686 51 153 255
0.125 -0.124766 -0.1233 51 153 255
0.125 -0.120916 0.116038 51 153 255
0.125 -0.125331 0.0165489 51 153 255
0.125 -0.124533 -0.0481582 51 153 255
0.125 -0.123766 0.0130643 51 153 255
0.125 -0.128896 -0.12371 51 153 255
0.125 -0.129187 -0.0134636 51 153 255
0.125 -0.129142 0.0982584 51 153 255
0.125 -0.121529 -0.00767141 51 153 255
0.125 -0.121401 -0.102674 51 153 255
0.125 -0.120167 0.119192 51 153 255
0.125 -0.127297 -0.113613 51 153 255
0.125 -0.12827 -0.0867941 51 153 255
0.125 -0.129645 0.0778395 51 153 255
0.125 -0.12663 0.0810648 51 153 255
0.125 -0.129002 -0.0849341 51 153 255
0.125 -0.121309 0.12206 51 153 255
0.125 -0.120155 -0.119737 51 153 255
0.125 -0.127161 -0.000947496 51 153 255
0.125 -0.125475 0.0626426 51 153 255
0.125 -0.121139 0.0557031 51 153 255
0.125 -0.121425 -0.0354736 51 153 255
0.125 -0.128159 -0.0648852 51 153 255
-0.0912789 -0.12 -0.0774403 51 153 255
-0.0223495 -0.12 -0.116013 51 153 255
-0.0344879 -0.12 0.0578645 51 153 255
-0.0803069 -0.12 -0.0642702 51 153 255
-0.0429642 -0.12 -0.0357887 51 153 255
0.0967643 -0.12 -0.0927405 51 153 255
0.0125492 -0.12 0.0459433 51 153 255
-0.0792785 -0.12 0.111125 51 153 255
-0.0629367 -0.12 -0.0514949 51 153 255
-0.0409222 -0.12 0.0261394 51 153 255
-0.114123 -0.12 -0.0615547 51 153 255
0.0757144 -0.12 -0.0382225 51 153 255
0.08419 -0.12 0.0301944 51 153 255
0.0420796 -0.12 -0.0133932 51 153 255
0.0648362 -0.12 0.0046387 51 153 255
0.0433231 -0.12 0.0354188 51 153 255
-0.0437687 -0.12 -0.0927341 51 153 255
-0.0993055 -0.12 0.0467313 51 153 255
-0.0906626 -0.12 -0.0627858 51 153 255
0.0773252 -0.12 0.0423929 51 153 255
-0.006802 -0.12 -0.0321075 51 153 255
-0.0287173 -0.12 -0.0208296 51 153 255
0.0429458 -0.12 0.107113 51 153 255
0.0950132 -0.12 -0.0841445 51 153 255
0.0731207 -0.12 -0.109524 51 153 255
-0.0877219 -0.12 -0.0807484 51 153 255
-0.0637394 -0.12 -0.110568 51 153 255
0.0185295 -0.12 -0.0834603 51 153 255
-0.014104 -0.12 -0.112182 51 153 255
-0.00913458 -0.12 0.0154892 51 153 255
0.107046 -0.12 -0.123134 51 153 255
0.103194 -0.12 -0.0151803 51 153 255
-0.116944 -0.12 -0.120354 51 153 255
0.0744687 -0.12 -0.115445 51 153 255
0.0643481 -0.12 0.0172247 51 153 255
0.0734946 -0.12 0.0510092 51 153 255
-0.0601647 -0.12 0.0510786 51 153 255
0.0989396 -0.12 0.00944802 51 153 255
-0.0686924 -0.12 -0.0620368 51 153 255
-0.027389 -0.12 0.0404609 51 153 255
-0.104396 -0.12 -0.0938139 51 153 255
0.0763147 -0.12 -0.0187527 51 153 255
0.0411031 -0.12 0.0866012 51 153 255
-0.0865619 -0.12 0.0465844 51 153 255
0.0814681 -0.12 -0.0532893 51 153 255
-0.0853625 -0.12 -0.0334428 51 153 255
-0.0678389 -0.12 0.0746274 51 153 255
0.00524869 -0.12 -0.0338818 51 153 255
-0.0221844 -0.12 -0.0355753 51 153 255
0.0421984 -0.12 0.0231481 51 153 255
-0.0834005 -0.12 0.0500831 51 153 255
-0.0532943 -0.12 -0.0456811 51 153 255
0.0414308 -0.12 0.00252971 51 153 255
0.0967977 -0.12 0.0480037 51 153 255
-0.120162 -0.12 -0.104597 51 153 255
0.00640518 -0.12 0.0084199 51 153 255
0.0508985 -0.12 0.0150257 51 153 255
0.0797232 -0.12 0.0591478 51 153 255
0.0380583 -0.12 -0.0957054 51 153 255
-0.0287128 -0.12 0.0923535 51 153 255
0.0694388 -0.12 0.029446 51 153 255
-0.0895844 -0.12 -0.0819751 51 153 255
0.119393 -0.12 0.110393 51 153 255
0.0816315 -0.12 -0.115074 51 153 255
0.122895 -0.12 -0.0640001 51 153 255
-0.0234315 -0.12 -0.092193 51 153 255
-0.113693 -0.12 -0.0144055 51 153 255
-0.0472245 -0.12 0.0124652 51 153 255
0.0582028 -0.12 -0.0850092 51 153 255
-0.0632333 -0.12 0.00388565 51 153 255
0.0779819 -0.12 -0.0786788 51 153 255
-0.0590855 -0.12 -0.00153571 51 153 255
0.0130806 -0.12 0.0241339 51 153 255
-0.0166388 -0.12 0.035256 51 153 255
0.124939 -0.12 -0.0925066 51 153 255
0.0232623 -0.12 0.075897 51 153 255
0.0499616 -0.12 -0.026926 51 153 255
0.00382058 -0.12 0.0492589 51 153 255
0.112437 -0.12 -0.122269 51 153 255
0.0842945 -0.12 0.0878187 51 153 255
-0.082122 -0.12 -0.0341554 51 153 255
0.106905 -0.12 -0.0332125 51 153 255
0.0636302 -0.12 0.101566 51 153 255
0.118227 -0.12 0.00351724 51 153 255
-0.123494 -0.12 -0.000927261 51 153 255
-0.0956911 -0.12 -0.0822246 51 153 255
-0.0307711 -0.12 0.0858543 51 153 255
0.0603916 -0.12 0.108419 51 153 255
-0.0959797 -0.12 -0.0721519 51 153 255
0.0884742 -0.12 -0.0991549 51 153 255
0.0895857 -0.12 0.0704621 51 153 255
-0.00406898 -0.12 0.102954 51 153 255
0.119357 -0.12 0.0385978 51 153 255
-0.0808029 -0.12 0.0689147 51 153 255
-0.116342 -0.12 -0.104316 51 153 255
0.109294 -0.12 -0.0790446 51 153 255
-0.0439104 -0.12 0.0061096 51 153 255
-0.0223224 -0.12 -0.0796449 51 153 255
0.0443623 -0.12 -0.000227703 51 153 255
-0.0943042 -0.12 0.0797501 51 153 255
-0.095981 -0.12 0.123161 51 153 255
0.0242159 -0.12 0.00247169 51 153 255
0.103708 -0.12 0.113806 51 153 255
0.0630338 -0.12 0.0574678 51 153 255
-0.000134905 -0.12 0.0833362 51 153 255
-0.0630212 -0.12 0.123476 51 153 255
-0.0465361 -0.12 0.112759 51 153 255
-0.0997222 -0.12 0.02974 51 153 255
0.050272 -0.12 -0.11821 51 153 255
-0.08312 -0.12 -0.015789 51 153 255
0.0844585 -0.12 -0.0555937 51 153 255
0.109122 -0.12 -0.0340334 51 153 255
-0.049387 -0.12 -0.089137 51 153 255
-0.118465 -0.12 0.0981918 51 153 255
-0.0970364 -0.12 -0.0291703 51 153 255
-0.00663345 -0.12 0.117237 51 153 255
-0.0572863 -0.12 -0.0250344 51 153 255
-0.0161743 -0.12 -0.0598131 51 153 255
-0.0497525 -0.12 0.00522028 51 153 255
0.0342227 -0.12 0.0505439 51 153 255
-0.0413339 -0.12 -0.0787137 51 153 255
-0.0447838 -0.12 0.00937581 51 153 255
-0.0297328 -0.12 0.0463519 51 153 255
0.116226 -0.12 -0.100443 51 153 255
-0.0834401 -0.12 -0.0264732 51 153 255
-0.108858 -0.12 -0.0540102 51 153 255
0.0890258 -0.12 -0.0696073 51 153 255
-0.0346888 -0.12 -0.0772399 51 153 255
0.00334488 -0.12 -0.032599 51 153 255
-0.0658452 -0.12 0.032151 51 153 255
-0.0950827 -0.12 -0.0138961 51 153 255
0.120466 -0.12 0.0940227 51 153 255
-0.0621546 -0.12 -0.117122 51 153 255
-0.106031 -0.12 -0.0949586 51 153 255
0.0304619 -0.12 0.0372341 51 153 255
-0.0294799 -0.12 0.123195 51 153 255
-0.0877727 -0.12 0.0731614 51 153 255
0.00147032 -0.12 0.0553086 51 153 255
-0.00193903 -0.12 0.0826191 51 153 255
0.0759744 -0.12 0.0904292 51 153 255
0.0700951 -0.12 0.0760158 51 153 255
-0.0204205 -0.12 -0.0795988 51 153 255
0.0377778 -0.12 0.115006 51 153 255
-0.086447 -0.12 -0.106476 51 153 255
0.0234291 -0.12 -0.104161 51 153 255
-0.0136786 -0.12 -0.0335795 51 153 255
0.113827 -0.12 0.104908 51 153 255
-0.0276792 -0.12 -0.0214026 51 153 255
0.0111549 -0.12 0.0292564 51 153 255
0.0878244 -0.12 -0.0240745 51 153 255
-0.00285464 -0.12 -0.0416596 51 153 255
0.0576969 -0.12 0.0734033 51 153 255
0.11005 -0.12 0.123419 51 153 255
0.0573138 -0.12 -0.0733743 51 153 255
-0.0638845 -0.12 0.121065 51 153 255
0.110784 -0.12 -0.0767602 51 153 255
-0.0249188 -0.12 -0.0699972 51 153 255
0.106465 -0.12 -0.0218341 51 153 255
-0.00252666 -0.12 -0.10037 51 153 255
0.00927098 -0.12 0.0880508 51 153 255
-0.0892967 -0.12 -0.00422948 51 153 255
0.0543615 -0.12 -0.0145985 51 153 255
0.082921 -0.12 0.0923375 51 153 255
0.0128918 -0.12 0.111974 51 153 255
-0.0888709 -0.12 0.0194608 51 153 255
0.00973278 -0.12 -0.0245955 51 153 255
0.020306 -0.12 -0.00493618 51 153 255
-0.0242296 -0.12 -0.118272 51 153 255
-0.100169 -0.12 -0.0201942 51 153 255
0.11161 -0.12 -0.102241 51 153 255
-0.114588 -0.12 0.0211718 51 153 255
-0.0819338 -0.12 0.0641663 51 153 255
-0.113673 -0.12 0.0958848 51 153 255
0.00439779 -0.12 -0.072096 51 153 255
0.102198 -0.12 -0.0689112 51 153 255
0.0973179 -0.12 0.112978 51 153 255
0.0189655 -0.12 0.0930263 51 153 255
0.0372085 -0.12 -0.0567536 51 153 255
0.0385271 -0.12 0.0177802 51 153 255
-0.0646574 -0.12 -0.010483 51 153 255
0.0290595 -0.12 0.0961595 51 153 255
0.0214848 -0.12 -0.0835212 51 153 255
0.0543119 -0.12 -0.00750736 51 153 255
-0.118825 -0.12 0.0583509 51 153 255
-0.0567378 -0.12 0.0822158 51 153 255
0.0604367 -0.12 0.0568224 51 153 255
-0.115367 -0.12 0.0314387 51 153 255
0.0407386 -0.12 0.0240777 51 153 255
0.0114883 -0.12 -0.0125344 51 153 255
0.0919977 -0.12 -0.0116454 51 153 255
-0.102511 -0.12 0.110851 51 153 255
0.0760271 -0.12 0.0970788 51 153 255
-0.0795901 -0.12 -0.0344654 51 153 255
-0.122131 -0.12 0.113982 51 153 255
-0.0560476 -0.12 0.0780848 51 153 255
0.00555023 -0.12 0.0337332 51 153 255
-0.0305032 -0.12 0.0221721 51 153 255
0.0470586 -0.12 0.00300594 51 153 255
0.00778712 -0.12 0.0966818 51 153 255
-0.0452184 -0.12 0.103375 51 153 255
0.063524 -0.12 0.038849 51 153 255
0.124408 -0.12 -0.0708169 51 153 255
-0.112541 -0.12 0.114845 51 153 255
0.0472994 -0.12 -0.0831261 51 153 255
0.056764 -0.12 0.109763 51 153 255
-0.0630334 -0.12 0.110091 51 153 255
0.107165 -0.12 0.123156 51 153 255
0.0489801 -0.12 -0.0557377 51 153 255
-0.0596284 -0.12 -0.0913699 51 153 255
0.0228801 -0.12 -0.114334 51 153 255
-0.124453 -0.12 0.00190464 51 153 255
-0.0435647 -0.12 0.0334229 51 153 255
-0.104885 -0.12 0.0539269 51 153 255
0.0299982 -0.12 -0.0287781 51 153 255
0.071665 -0.12 0.0822692 51 153 255
0.0103936 -0.12 0.0341649 51 153 255
-0.110604 -0.12 -0.120617 51 153 255
-0.0753462 -0.12 -0.119919 51 153 255
0.106869 -0.12 0.0253614 51 153 255
-0.0348502 -0.12 -0.0485131 51 153 255
0.0269075 -0.12 -0.0878244 51 153 255
-0.0242509 -0.12 -0.00595866 51 153 255
0.0985208 -0.12 -0.0591981 51 153 255
0.0123682 -0.12 -0.0649009 51 153 255
-0.115048 -0.12 0.0262181 51 153 255
0.0468644 -0.12 0.0780117 51 153 255
0.0233059 -0.12 -0.0853758 51 153 255
0.0436829 -0.12 -0.0326726 51 153 255
0.0268931 -0.12 -0.105647 51 153 255
-0.0971615 -0.12 -0.0831512 51 153 255
-0.0722416 -0.12 -0.0138166 51 153 255
0.0549823 -0.12 -0.111648 51 153 255
0.00176516 -0.12 0.111149 51 153 255
0.0472972 -0.12 -0.0658415 51 153 255
-0.0815991 -0.12 0.10176 51 153 255
0.102797 -0.12 -0.055273 51 153 255
-0.0583929 -0.12 0.0492207 51 153 255
-0.0106774 -0.12 0.0497333 51 153 255
-0.0127192 -0.12 -0.0512858 51 153 255
-0.0254189 -0.12 0.11716 51 153 255
-0.107943 -0.12 0.0952406 51 153 255
-0.108805 -0.12 0.0499969 51 153 255
-0.107638 -0.12 -0.035785 51 153 255
0.0992359 -0.12 -0.0991962 51 153 255
0.0807347 -0.12 0.103497 51 153 255
-0.0722275 -0.12 -0.0213968 51 153 255
0.0734618 -0.12 0.0507422 51 153 255
-0.0421717 -0.12 0.0485228 51 153 255
0.0215697 -0.12 0.0809095 51 153 255
0.0855407 -0.12 0.0244628 51 153 255
-0.0939144 -0.12 -0.0415097 51 153 255
0.0308805 -0.12 0.115778 51 153 255
-0.0138099 -0.12 -0.080181 51 153 255
-0.0319535 -0.12 -0.0710734 51 153 255
0.0532618 -0.12 -0.0933903 51 153 255
-0.0548493 -0.12 0.0637167 51 153 255
0.0923564 -0.12 0.0998543 51 153 255
-0.0422412 -0.12 0.0162312 51 153 255
-0.103469 -0.12 -0.0754838 51 153 255
-0.0227414 -0.12 0.0916484 51 153 255
0.0928952 -0.12 -0.0511265 51 153 255
-0.03308 -0.12 -0.036176 51 153 255
-0.0518328 -0.12 0.116454 51 153 255
-0.0412165 -0.12 0.0859798 51 153 255
0.0671255 -0.12 -0.0267672 51 153 255
0.0433265 -0.12 -0.0428206 51 153 255
-0.11435 -0.12 -0.00532302 51 153 255
-0.00164058 -0.12 0.0595718 51 153 255
0.0760531 -0.12 0.122432 51 153 255
-0.0554357 -0.12 0.0647323 51 153 255
0.111794 -0.12 0.0288203 51 153 255
0.0560923 -0.12 0.100096 51 153 255
-0.0892141 -0.12 -0.0494691 51 153 255
0.0642622 -0.12 0.0796388 51 153 255
0.116625 -0.12 -0.00590331 51 153 255
0.0528872 -0.12 0.0894308 51 153 255
0.116682 -0.12 0.0647047 51 153 255
0.00822422 -0.12 0.039887 51 153 255
0.11208 -0.12 0.0932155 51 153 255
0.00894686 -0.12 0.115617 51 153 255
-0.0241787 -0.12 0.0798134 51 153 255
-0.0151784 -0.12 -0.0459185 51 153 255
0.120905 -0.12 0.0181959 51 153 255
-0.0869165 -0.12 0.0568976 51 153 255
0.028856 -0.12 0.0524326 51 153 255
0.00267736 -0.12 -0.0455445 51 153 255
0.0964218 -0.12 0.101112 51 153 255
0.033003 -0.12 0.121061 51 153 255
0.0836826 -0.12 0.0895647 51 153 255
-0.0814382 -0.12 0.0717797 51 153 255
-0.0848676 -0.12 -0.0552318 51 153 255
-0.00204806 -0.12 -0.0820263 51 153 255
-0.0511807 -0.12 0.054392 51 153 255
0.120027 -0.12 -0.0247752 51 153 255
0.0740323 -0.12 -0.105624 51 153 255
0.095088 -0.12 0.0230897 51 153 255
-0.0979702 -0.12 -0.0552563 51 153 255
0.0246045 -0.12 0.0583266 51 153 255
-0.0760264 -0.12 0.0819908 51 153 255
-0.0226741 -0.12 0.00335265 51 153 255
-0.108499 -0.12 0.100865 51 153 255
-0.100591 -0.12 0.00792952 51 153 255
-0.00515556 -0.12 -0.0141044 51 153 255
-0.0998587 -0.12 -0.0428414 51 153 255
0.0250249 -0.12 -0.00207354 51 153 255
0.0889068 -0.12 0.0855379 51 153 255
-0.0531704 -0.12 -0.0361206 51 153 255
0.0570936 -0.12 -0.103794 51 153 255
0.0626368 -0.12 -0.0485962 51 153 255
0.0892058 -0.12 -0.0245056 51 153 255
0.0681846 -0.12 0.094976 51 153 255
-0.0126311 -0.12 -0.032484 51 153 255
-0.015565 -0.12 -0.0301122 51 153 255
-0.0231265 -0.12 -0.0824275 51 153 255
-0.00643137 -0.12 -0.0231514 51 153 255
-0.0615311 -0.12 0.0071515 51 153 255
-0.115301 -0.12 0.0823049 51 153 255
0.00529534 -0.12 -0.0868658 51 153 255
-0.0414167 -0.12 -0.0408508 51 153 255
-0.0931298 -0.12 0.0971123 51 153 255
0.108316 -0.12 -0.054802 51 153 255
-0.0906514 -0.12 0.0558401 51 153 255
0.100637 -0.12 -0.00949376 51 153 255
0.0563989 -0.12 0.0771175 51 153 255
-0.0284022 -0.12 0.0312035 51 153 255
0.0157928 -0.12 -0.071394 51 153 255
0.0294137 -0.12 0.117837 51 153 255
-0.0261429 -0.12 -0.048429 51 153 255
0.0525663 -0.12 -0.0239536 51 153 255
-0.0820305 -0.12 0.12429 51 153 255
-0.00118349 -0.12 -0.0870046 51 153 255
-0.030371 -0.12 0.0185057 51 153 255
0.0773352 -0.12 0.0329036 51 153 255
0.0287703 -0.12 0.0256126 51 153 255
-0.0795298 -0.12 -0.106847 51 153 255
0.0445988 -0.12 -0.120322 51 153 255
-0.00445736 -0.12 0.110736 51 153 255
-0.00133081 -0.12 -0.0502425 51 153 255
-0.116252 -0.12 -0.103618 51 153 255
0.0737162 -0.12 0.0608936 51 153 255
-0.0818805 -0.12 -0.0833308 51 153 255
0.111004 -0.12 0.0961235 51 153 255
-0.0251617 -0.12 0.00497587 51 153 255
0.0178069 -0.12 0.0710841 51 153 255
-0.0458399 -0.12 0.0507746 51 153 255
0.0254039 -0.12 0.110309 51 153 255
-0.014837 -0.12 0.00870506 51 153 255
0.0915069 -0.12 -0.0757135 51 153 255
0.0614465 -0.12 -0.068381 51 153 255
0.00914435 -0.12 -0.0252439 51 153 255
-0.113851 -0.12 0.0926744 51 153 255
-0.0487191 -0.12 -0.0584071 51 153 255
-0.0355495 -0.12 0.0176945 51 153 255
0.0601819 -0.12 -0.102844 51 153 255
-0.0764132 -0.12 -0.123036 51 153 255
-0.00243476 -0.12 -0.120691 51 153 255
0.0310727 -0.12 -0.0809942 51 153 255
0.0898775 -0.12 -0.0166013 51 153 255
-0.00491649 -0.12 -0.102166 51 153 255
0.0315018 -0.12 0.0293778 51 153 255
0.0254737 -0.12 -0.0748803 51 153 255
-0.0331617 -0.12 -0.0480204 51 153 255
-0.115251 -0.12 -0.0289982 51 153 255
-0.10991 -0.12 -0.0212686 51 153 255
0.118411 -0.12 0.0863524 51 153 255
0.0349156 -0.12 -0.123443 51 153 255
-0.0363373 -0.12 -0.117812 51 153 255
0.00431917 -0.12 -0.0442667 51 153 255
0.0615191 -0.12 -0.0373171 51 153 255
-0.0338276 -0.12 -0.00526527 51 153 255
0.118377 -0.12 -0.0362812 51 153 255
-0.122217 -0.12 0.00544939 51 153 255
0.119559 -0.12 -0.0574892 51 153 255
0.0128105 -0.12 0.034121 51 153 255
0.0710811 -0.12 -0.0168272 51 153 255
-0.0540269 -0.12 -0.0382965 51 153 255
0.114184 -0.12 -0.0835454 51 153 255
-0.00987624 -0.12 -0.0347217 51 153 255
0.0351608 -0.12 0.00667272 51 153 255
-0.0908499 -0.12 -0.0314066 51 153 255
-0.0514105 -0.12 -0.0578194 51 153 255
-0.081203 -0.12 0.0515042 51 153 255
0.0965446 -0.12 -0.0595641 51 153 255
0.0560077 -0.12 0.0828275 51 153 255
-0.0596893 -0.12 -0.0998249 51 153 255
-0.026922 -0.12 -0.0104206 51 153 255
-0.111018 -0.12 -0.00139473 51 153 255
-0.0659359 -0.12 0.0328628 51 153 255
-0.0810733 -0.12 -0.00135606 51 153 255
0.0407016 -0.12 0.0332361 51 153 255
-0.0554225 -0.12 0.00794092 51 153 255
0.0544325 -0.12 0.0209118 51 153 255
0.122487 -0.12 0.0136087 51 153 255
-0.0541384 -0.12 -0.00269471 51 153 255
-0.113652 -0.12 -0.0860544 51 153 255
-0.110836 -0.12 0.102655 51 153 255
-0.0622586 -0.12 -0.0786093 51 153 255
0.0931426 -0.12 0.116333 51 153 255
0.0356408 -0.12 -0.00629266 51 153 255
0.0864648 -0.12 0.0446619 51 153 255
0.0906003 -0.12 -0.0134827 51 153 255
-0.0508113 -0.12 -0.0366727 51 153 255
-0.00815773 -0.12 -0.0830115 51 153 255
0.046997 -0.12 0.00353127 51 153 255
-0.00622917 -0.12 -0.0649251 51 153 255
-0.0440186 -0.12 -0.0800324 51 153 255
-0.071332 -0.12 -0.036879 51 153 255
0.0912087 -0.12 -0.11978 51 153 255
-0.101275 -0.12 -0.0147093 51 153 255
0.0793424 -0.12 -0.0626792 51 153 255
0.0333005 -0.12 -0.0851621 51 153 255
0.0448565 -0.12 -0.090518 51 153 255
-0.0471195 -0.12 0.103467 51 153 255
0.0493713 -0.12 -0.0461212 51 153 255
-0.0268742 -0.12 -0.123808 51 153 255
-0.0128928 -0.12 0.0240864 51 153 255
0.00945604 -0.12 0.0278846 51 153 255
-0.0237767 -0.12 -0.0477217 51 153 255
-0.0328126 -0.12 0.0712615 51 153 255
-0.0889426 -0.12 0.0760915 51 153 255
0.0821328 -0.12 -0.102028 51 153 255
-0.0160968 -0.12 -0.0428292 51 153 255
0.105859 -0.12 -0.0907507 51 153 255
-0.0552702 -0.12 0.105083 51 153 255
-0.0141378 -0.12 0.0802698 51 153 255
0.107131 -0.12 0.0153461 51 153 255
0.0303462 -0.12 0.0252895 51 153 255
0.0656198 -0.12 -0.0673434 51 153 255
-0.0800118 -0.12 0.0288912 51 153 255
0.117194 -0.12 0.115839 51 153 255
-0.0928836 -0.12 -0.0929426 51 153 255
-0.0949536 -0.12 0.0452816 51 153 255
0.0639739 -0.12 -0.0749554 51 153 255
-0.0423556 -0.12 -0.102392 51 153 255
0.0024111 -0.12 0.0394594 51 153 255
0.0296047 -0.12 0.0782575 51 153 255
0.0325444 -0.12 -0.0152261 51 153 255
-0.0553222 -0.12 0.124846 51 153 255
0.0530249 -0.12 0.124081 51 153 255
0.098166 -0.12 -0.0202695 51 153 255
-0.117168 -0.12 -0.0196159 51 153 255
-0.0272636 -0.12 0.0403156 51 153 255
-0.0200278 -0.12 -0.084508 51 153 255
0.0900227 -0.12 0.028923 51 153 255
-0.00772193 -0.12 -0.068347 51 153 255
-0.00889578 -0.12 0.0677388 51 153 255
-0.0337928 -0.12 -0.0167139 51 153 255
-0.0628126 -0.12 -0.0784487 51 153 255
0.106447 -0.12 0.02133 51 153 255
-0.124857 -0.12 0.0394221 51 153 255
-0.0352706 -0.12 0.0356399 51 153 255
-0.0383585 -0.12 -0.00997798 51 153 255
-0.107101 -0.12 0.0199746 51 153 255
0.0845072 -0.12 -0.0922313 51 153 255
-0.107506 -0.12 -0.00637161 51 153 255
0.0812969 -0.12 0.0718209 51 153 255
0.1245 -0.12 -0.0567449 51 153 255
-0.120054 -0.12 0.0549621 51 153 255
0.0258307 -0.12 -0.0512314 51 153 255
0.0673564 -0.12 -0.0940348 51 153 255
0.0699457 -0.12 -0.0687728 51 153 255
-0.0252162 -0.12 -0.10386 51 153 255
-0.119956 -0.12 0.0116686 51 153 255
0.0131209 -0.12 0.0266031 51 153 255
-0.122411 -0.12 -0.00448936 51 153 255
-0.107747 -0.12 -0.0196504 51 153 255
-0.0116805 -0.12 -0.0735377 51 153 255
-0.0925601 -0.12 0.050733 51 153 255
-0.0418782 -0.12 0.116739 51 153 255
-0.0238915 -0.12 0.0511439 51 153 255
-0.0833575 -0.12 0.0657293 51 153 255
0.0458307 -0.12 -0.0258511 51 153 255
0.101577 -0.12 -0.0580891 51 153 255
0.0675281 -0.12 -0.0925824 51 153 255
0.0832047 -0.12 -0.107285 51 153 255
0.0160789 -0.12 0.0765229 51 153 255
0.0902303 -0.12 0.0591869 51 153 255
-0.0723621 -0.12 0.0815083 51 153 255
-0.0696617 -0.12 -0.0586585 51 153 255
-0.0418711 -0.12 0.00334956 51 153 255
-0.097628 -0.12 -0.0667379 51 153 255
-0.0893912 -0.12 0.0512172 51 153 255
0.0131433 -0.12 -0.0211236 51 153 255
-0.103136 -0.12 0.0608013 51 153 255
-0.0761296 -0.12 0.0789903 51 153 255
0.0372214 -0.12 -0.0936401 51 153 255
-0.0798318 -0.12 -0.0177916 51 153 255
0.0110267 -0.12 -0.0921136 51 153 255
0.0589506 -0.12 -0.0727434 51 153 255
-0.005432 -0.12 0.046153 51 153 255
-0.116244 -0.12 -0.0874138 51 153 255
-0.0357995 -0.12 0.122664 51 153 255
-0.0400259 -0.12 0.0903698 51 153 255
-0.0829213 -0.12 0.100991 51 153 255
0.103436 -0.12 -0.0603713 51 153 255
0.0556031 -0.12 0.0203962 51 153 255
0.0337646 -0.12 0.011459 51 153 255
0.0137534 -0.12 0.12155 51 153 255
0.0110065 -0.12 0.0574812 51 153 255
-0.0660939 -0.12 0.111963 51 153 255
-0.0150513 -0.12 -0.089561 51 153 255
0.0185253 -0.12 0.0103073 51 153 255
0.0715817 -0.12 -0.0883582 51 153 255
-0.0153685 -0.12 -0.0966788 51 153 255
0.0652263 -0.12 0.0445231 51 153 255
-0.020699 -0.12 -0.0907786 51 153 255
0.0706945 -0.12 0.0845343 51 153 255
-0.048565 -0.12 0.00757984 51 153 255
-0.0716933 -0.12 0.0971321 51 153 255
-0.0146703 -0.12 -0.0104451 51 153 255
0.0651633 -0.12 0.118816 51 153 255
-0.109616 -0.12 0.0746614 51 153 255
-0.0354601 -0.12 -0.086963 51 153 255
-0.030503 -0.12 0.00679414 51 153 255
-0.107427 -0.12 -0.0376743 51 153 255
0.060456 -0.12 0.0592446 51 153 255
-0.0131974 -0.12 -0.123798 51 153 255
-0.0255986 -0.12 0.0924909 51 153 255
-0.111359 -0.12 0.0226023 51 153 255
-0.0730583 -0.12 -0.0278498 51 153 255
0.053305 -0.12 0.0652741 51 153 255
-0.109983 -0.12 0.0154378 51 153 255
-0.00599935 -0.12 0.0339402 51 153 255
-0.0944072 -0.12 0.0834406 51 153 255
-0.0385747 -0.12 0.061733 51 153 255
0.0556751 -0.12 0.00406113 51 153 255
-0.110355 -0.12 -0.116219 51 153 255
0.0517117 -0.12 -0.0581213 51 153 255
-0.0395179 -0.12 -0.00785455 51 153 255
0.0614866 -0.12 -0.0318424 51 153 255
0.0378451 -0.12 0.0800097 51 153 255
0.11933 -0.12 -0.105536 51 153 255
0.0296738 -0.12 0.0608258 51 153 255
-0.0758289 -0.12 -0.0780759 51 153 255
-0.0958687 -0.12 0.0392466 51 153 255
-0.0684427 -0.12 -0.0569426 51 153 255
0.0947193 -0.12 0.0247708 51 153 255
0.0516978 -0.12 -0.0282965 51 153 255
0.0164234 -0.12 0.0966926 51 153 255
-0.0435832 -0.12 0.0583883 51 153 255
-0.0963661 -0.12 0.111941 51 153 255
0.05166 -0.12 -0.0987633 51 153 255
0.018694 -0.12 0.0450207 51 153 255
-0.0785627 -0.12 0.0663885 51 153 255
-0.0232995 -0.12 0.0706083 51 153 255
-0.00772651 -0.12 0.122024 51 153 255
0.124435 -0.12 0.00889326 51 153 255
-0.103952 -0.12 0.0758444 51 153 255
-0.0187347 -0.12 -0.0776205 51 153 255
-0.0787819 -0.12 -0.0687808 51 153 255
0.112207 -0.12 -0.0142141 51 153 255
-0.115894 -0.12 0.0187004 51 153 255
-0.00535459 -0.12 -0.0738454 51 153 255
-0.0963067 -0.12 -0.00953181 51 153 255
-0.0372138 -0.12 0.0543776 51 153 255
-0.102955 -0.12 0.0453918 51 153 255
-0.0799433 -0.12 -0.0195804 51 153 255
0.0420682 -0.12 -0.0705017 51 153 255
0.12319 -0.12 0.0764398 51 153 255
-0.0468294 -0.12 0.0198243 51 153 255
-0.112345 -0.12 0.00979811 51 153 255
-0.0838944 -0.12 0.0406088 51 153 255
-0.0240451 -0.12 -0.0247932 51 153 255
-0.00319237 -0.12 0.0260035 51 153 255
0.0522518 -0.12 -0.0660585 51 153 255
0.0409365 -0.12 0.0927182 51 153 255
0.111237 -0.12 0.0564549 51 153 255
-0.0939441 -0.12 0.0431572 51 153 255
0.1062 -0.12 -0.00534289 51 153 255
-0.00690704 -0.12 0.0112492 51 153 255
0.0510129 -0.12 0.0185995 51 153 255
-0.0396914 -0.12 -0.0765714 51 153 255
-0.0753548 -0.12 0.0648635 51 153 255
0.0651228 -0.12 0.0256063 51 153 255
0.0624443 -0.12 -0.0639837 51 153 255
-0.0627331 -0.12 -0.0803936 51 153 255
-0.0685894 -0.12 -0.0735326 51 153 255
-0.0157759 -0.12 0.114181 51 153 255
0.0450021 -0.12 0.0718627 51 153 255
-0.0917662 -0.12 -0.0293089 51 153 255
-0.0720745 -0.12 -0.110651 51 153 255
0.0869084 -0.12 0.104058 51 153 255
-0.0746026 -0.12 -0.056642 51 153 255
-0.0200328 -0.12 0.0253985 51 153 255
-0.0764689 -0.12 -0.10402 51 153 255
0.0779102 -0.12 -0.101968 51 153 255
-0.109896 -0.12 0.0926235 51 153 255
0.0945561 -0.12 0.0303284 51 153 255
0.0721515 -0.12 -0.0418589 51 153 255
-0.0523982 -0.12 -0.0301511 51 153 255
-0.100719 -0.12 -0.106124 51 153 255
0.0284778 -0.12 0.101317 51 153 255
-0.0923322 -0.12 -0.0647245 51 153 255
-0.0356393 -0.12 0.0689273 51 153 255
0.100557 -0.12 -0.116418 51 153 255
0.0856577 -0.12 -0.0622283 51 153 255
0.117658 -0.12 -0.0414014 51 153 255
0.121627 -0.12 0.0676114 51 153 255
-0.0727427 -0.12 0.118054 51 153 255
-0.00817068 -0.12 -0.0247065 51 153 255
-0.0580705 -0.12 0.0990225 51 153 255
0.12132 -0.12 -0.0520345 51 153 255
0.104777 -0.12 0.0429563 51 153 255
-0.0891808 -0.12 0.102622 51 153 255
0.119134 -0.12 0.0262566 51 153 255
0.0225218 -0.12 -0.0358775 51 153 255
-0.0786145 -0.12 0.00617302 51 153 255
0.018409 -0.12 -0.0512919 51 153 255
0.107928 -0.12 -0.0869312 51 153 255
-0.0549332 -0.12 -0.105871 51 153 255
0.0262993 -0.12 0.0307906 51 153 255
-0.00934391 -0.12 0.118668 51 153 255
-0.0437103 -0.12 0.0645631 51 153 255
-0.0541053 -0.12 -0.0708663 51 153 255
0.0698618 -0.12 0.082275 51 153 255
0.0111182 -0.12 0.0735359 51 153 255
0.0999066 -0.12 0.00824988 51 153 255
-0.0641579 -0.12 0.118169 51 153 255
-0.116237 -0.12 0.072872 51 153 255
0.00858714 -0.12 -0.111268 51 153 255
-0.0498614 -0.12 0.0955375 51 153 255
0.0836195 -0.12 -0.117647 51 153 255
0.032385 -0.12 0.0144737 51 153 255
0.00404375 -0.12 0.0123029 51 153 255
-0.114921 -0.12 -0.112722 51 153 255
0.101101 -0.13 -0.0354354 51 153 255
0.0346419 -0.13 0.0380672 51 153 255
-0.018891 -0.13 0.0319872 51 153 255
-0.103545 -0.13 -0.00851552 51 153 255
0.105746 -0.13 0.0363447 51 153 255
-0.0518161 -0.13 -0.0710391 51 153 255
0.0210623 -0.13 -0.0467978 51 153 255
-0.00519096 -0.13 0.00132195 51 153 255
0.108843 -0.13 0.0367483 51 153 255
-0.0788361 -0.13 -0.0623515 51 153 255
-0.124309 -0.13 -0.114535 51 153 255
0.0138317 -0.13 -0.00389864 51 153 255
-0.0920808 -0.13 -0.10391 51 153 255
0.0168191 -0.13 -0.0766733 51 153 255
0.0169141 -0.13 0.0839832 51 153 255
0.0571412 -0.13 -0.120205 51 153 255
-0.0542163 -0.13 -0.110359 51 153 255
-0.100386 -0.13 -0.0784333 51 153 255
-0.0358412 -0.13 -0.0424454 51 153 255
-0.0391486 -0.13 0.0987966 51 153 255
-0.0957759 -0.13 -0.0301352 51 153 255
0.00432394 -0.13 0.099811 51 153 255
0.0335908 -0.13 0.0703267 51 153 255
-0.0426603 -0.13 0.096617 51 153 255
-0.0545152 -0.13 -0.110463 51 153 255
-0.0668637 -0.13 0.0516598 51 153 255
0.0869319 -0.13 -0.0810619 51 153 255
-0.0320354 -0.13 -0.00532327 51 153 255
0.12323 -0.13 0.034508 51 153 255
0.0625317 -0.13 0.0454564 51 153 255
-0.0797514 -0.13 -0.114896 51 153 255
-0.118804 -0.13 -0.0116167 51 153 255
-0.0106673 -0.13 0.0742225 51 153 255
0.100828 -0.13 -0.0884102 51 153 255
0.120326 -0.13 0.077747 51 153 255
0.0161262 -0.13 -0.0651312 51 153 255
-0.0122176 -0.13 0.118597 51 153 255
-0.00677981 -0.13 0.0352512 51 153 255
-0.103464 -0.13 0.0926936 51 153 255
-0.0845583 -0.13 -0.0373288 51 153 255
-0.0662342 -0.13 -0.107653 51 153 255
0.075488 -0.13 0.0899418 51 153 255
-0.0831912 -0.13 0.104735 51 153 255
0.02291 -0.13 -0.0873663 51 153 255
0.112063 -0.13 -0.0984545 51 153 255
-0.0180705 -0.13 0.0629491 51 153 255
0.0153189 -0.13 -0.00425275 51 153 255
0.0225725 -0.13 -0.060922 51 153 255
-0.00199246 -0.13 0.113698 51 153 255
0.0619228 -0.13 -0.0459733 51 153 255
0.0789301 -0.13 -0.0999226 51 153 255
0.0381965 -0.13 0.109059 51 153 255
0.0929436 -0.13 0.052129 51 153 255
0.117255 -0.13 0.0974064 51 153 255
-0.0535355 -0.13 -0.108538 51 153 255
0.117013 -0.13 -0.0166971 51 153 255
-0.0389941 -0.13 -0.0404445 51 153 255
-0.0854292 -0.13 0.0277598 51 153 255
0.0304921 -0.13 0.115314 51 153 255
-0.0405227 -0.13 -0.12358 51 153 255
-0.12189 -0.13 0.0739014 51 153 255
0.124841 -0.13 0.0995457 51 153 255
-0.11446 -0.13 0.0726363 51 153 255
-0.0800311 -0.13 0.0520069 51 153 255
-0.0340404 -0.13 0.114908 51 153 255
0.00293808 -0.13 0.0723951 51 153 255
0.0924864 -0.13 0.0201868 51 153 255
0.101282 -0.13 -0.0892369 51 153 255
0.0312986 -0.13 0.0254178 51 153 255
-0.0470126 -0.13 0.110076 51 153 255
0.0249726 -0.13 -0.0849381 51 153 255
0.0426887 -0.13 0.117727 51 153 255
-0.116527 -0.13 0.0168521 51 153 255
0.00444261 -0.13 -0.0955121 51 153 255
-0.0885022 -0.13 0.0905954 51 153 255
0.0247702 -0.13 0.026242 51 153 255
-0.0150141 -0.13 0.0213338 51 153 255
0.0641111 -0.13 -0.0860533 51 153 255
-0.0213896 -0.13 0.00744052 51 153 255
0.0171865 -0.13 0.0381242 51 153 255
0.0822202 -0.13 -0.0627623 51 153 255
-0.0576985 -0.13 -0.115765 51 153 255
0.0367577 -0.13 0.0916687 51 153 255
-0.0632805 -0.13 -0.0846902 51 153 255
-0.0428036 -0.13 0.00254035 51 153 255
0.0398912 -0.13 0.0643583 51 153 255
0.0828722 -0.13 0.00125482 51 153 255
0.0789391 -0.13 -0.0424635 51 153 255
0.10686 -0.13 -0.072393 51 153 255
-0.0483359 -0.13 -0.0663932 51 153 255
0.124195 -0.13 -0.099003 51 153 255
0.0829948 -0.13 -0.07522 51 153 255
-0.0898468 -0.13 0.0126088 51 153 255
-0.06419 -0.13 -0.0626325 51 153 255
-0.109827 -0.13 0.0651828 51 153 255
0.0944294 -0.13 -0.0147035 51 153 255
-0.112619 -0.13 -0.0847815 51 153 255
-0.00417949 -0.13 -0.119264 51 153 255
-0.1045 -0.13 0.0395727 51 153 255
0.099888 -0.13 -0.0326424 51 153 255
0.0144365 -0.13 -0.0135209 51 153 255
-0.0416829 -0.13 -0.0309473 51 153 255
-0.0851125 -0.13 -0.0969703 51 153 255
-0.0861454 -0.13 -0.0446762 51 153 255
-0.114821 -0.13 -0.0220127 51 153 255
0.0571312 -0.13 -0.0795398 51 153 255
0.0193163 -0.13 0.111721 51 153 255
-0.0690871 -0.13 0.0774933 51 153 255
