ply
format ascii 1.0
comment Created by Open3D
element vertex 692
property double x
property double y
property double z
property uchar red
property uchar green
property uchar blue
end_header
0.0156952 0.0171801 -0.0995 26 204 26
-0.0215233 0.0222144 -0.0995 26 204 26
0.0221081 0.00312448 -0.0995 26 204 26
-0.0214514 -0.0257533 -0.0995 26 204 26
0.00214796 0.00694368 -0.0995 26 204 26
0.0249518 0.0400312 -0.0995 26 204 26
0.0121439 0.0167707 -0.0995 26 204 26
-0.0202763 -0.0111072 -0.0995 26 204 26
-0.0192524 -0.00633881 -0.0995 26 204 26
-0.0155488 0.04164 -0.0995 26 204 26
-0.0258721 0.0164952 -0.0995 26 204 26
0.0198393 0.0271485 -0.0995 26 204 26
-0.022943 0.000331362 -0.0995 26 204 26
0.00742761 0.0351065 -0.0995 26 204 26
0.0115058 -0.0219246 -0.0995 26 204 26
-0.0256074 0.00504277 -0.0995 26 204 26
0.0291389 0.0140226 -0.0995 26 204 26
-0.0231714 -0.0127305 -0.0995 26 204 26
0.0118514 0.0425778 -0.0995 26 204 26
0.0110219 -0.00732847 -0.0995 26 204 26
-0.0268584 0.0276219 -0.0995 26 204 26
0.0234772 -0.0361688 -0.0995 26 204 26
0.00952897 0.023429 -0.0995 26 204 26
-0.015014 -0.0195197 -0.0995 26 204 26
0.0187414 -0.0127874 -0.0995 26 204 26
0.0274057 -0.0174802 -0.0995 26 204 26
0.0242211 -0.0167329 -0.0995 26 204 26
-0.0199364 -0.0251499 -0.0995 26 204 26
-0.00883775 0.0332194 -0.0995 26 204 26
-0.00372665 -0.0247204 -0.0995 26 204 26
0.0031156 -0.0340371 -0.0995 26 204 26
-0.0250892 -0.01477 -0.0995 26 204 26
0.0193798 -0.0397282 -0.0995 26 204 26
0.00799644 0.030375 -0.0995 26 204 26
-0.00927577 0.0296594 -0.0995 26 204 26
0.00662345 -0.00246499 -0.0995 26 204 26
0.00352061 -0.0435745 -0.0995 26 204 26
0.0279117 0.0283099 -0.0995 26 204 26
0.0181711 0.0410401 -0.0995 26 204 26
-0.015619 0.0137318 -0.0995 26 204 26
-0.00496135 -0.0160298 -0.0995 26 204 26
0.0276195 0.0254419 -0.0995 26 204 26
0.000373473 -0.0142984 -0.0995 26 204 26
0.00980595 0.0412235 -0.0995 26 204 26
0.00666043 -0.0415902 -0.0995 26 204 26
-0.00917416 0.0131934 -0.0995 26 204 26
-0.0197466 0.00624718 -0.0995 26 204 26
0.0110785 -0.0420751 -0.0995 26 204 26
-0.00361438 -0.0266454 -0.0995 26 204 26
0.0101934 0.0368326 -0.0995 26 204 26
-0.023901 0.00765207 -0.0995 26 204 26
0.0221869 0.00388118 -0.0995 26 204 26
-0.0162108 0.0287685 0.0995 26 204 26
0.0152811 -0.0255339 0.0995 26 204 26
-0.0245398 -0.0158789 0.0995 26 204 26
-0.00453582 0.0391865 0.0995 26 204 26
0.0294796 -0.00608211 0.0995 26 204 26
0.00203324 0.00669445 0.0995 26 204 26
-0.0153323 -0.0107793 0.0995 26 204 26
0.0267109 0.0266419 0.0995 26 204 26
0.00393939 0.0116175 0.0995 26 204 26
-0.00298084 0.00188772 0.0995 26 204 26
-0.00605238 0.01225 0.0995 26 204 26
0.0158903 -0.0295359 0.0995 26 204 26
-0.00878832 0.0179215 0.0995 26 204 26
-0.00266428 -0.037299 0.0995 26 204 26
0.0222725 -0.029931 0.0995 26 204 26
-0.00432149 0.0403411 0.0995 26 204 26
0.00795373 -0.0168195 0.0995 26 204 26
-0.0135251 -0.0403086 0.0995 26 204 26
-0.0256298 0.00672685 0.0995 26 204 26
-0.024101 0.00795084 0.0995 26 204 26
0.00597531 -0.0444563 0.0995 26 204 26
-0.0219044 -0.0214389 0.0995 26 204 26
-0.0150829 -0.00880603 0.0995 26 204 26
0.0155243 -4.5633e-05 0.0995 26 204 26
0.0248922 0.0361453 0.0995 26 204 26
0.00585323 0.0325881 0.0995 26 204 26
-0.0286942 0.013194 0.0995 26 204 26
0.0112104 0.0386541 0.0995 26 204 26
-0.0173218 0.0162872 0.0995 26 204 26
0.000810952 -0.0139388 0.0995 26 204 26
-0.0249161 -0.0243914 0.0995 26 204 26
0.0111083 0.0185652 0.0995 26 204 26
0.0203343 0.00291508 0.0995 26 204 26
0.00207679 -0.0401669 0.0995 26 204 26
0.0208903 -0.0111506 0.0995 26 204 26
0.0215263 -0.0123245 0.0995 26 204 26
-0.00605085 -0.0113423 0.0995 26 204 26
-0.0237761 -0.0438791 0.0995 26 204 26
0.00526725 0.0226983 0.0995 26 204 26
-0.0027589 -0.0402301 0.0995 26 204 26
-0.0223154 0.033708 0.0995 26 204 26
0.0254278 0.00658953 0.0995 26 204 26
-0.0170312 0.0177994 0.0995 26 204 26
-0.00574779 -0.00600452 0.0995 26 204 26
-0.0195238 -0.00301014 0.0995 26 204 26
-0.0281043 -0.0349672 0.0995 26 204 26
0.0273908 0.041965 0.0995 26 204 26
0.0156696 -0.0317561 0.0995 26 204 26
-0.00755331 -0.0352132 0.0995 26 204 26
-0.0154534 0.00722091 0.0995 26 204 26
0.0273013 0.00509566 0.0995 26 204 26
-0.0151533 -0.0153022 0.0995 26 204 26
-0.0295 -0.0412256 -0.0155881 26 204 26
-0.0295 0.0399967 0.0823519 26 204 26
-0.0295 -0.0329877 -0.0129718 26 204 26
-0.0295 -0.0311955 0.0877774 26 204 26
-0.0295 0.00242758 -0.064929 26 204 26
-0.0295 -0.039532 0.019831 26 204 26
-0.0295 0.00691959 0.0514022 26 204 26
-0.0295 -0.0360623 -0.0222398 26 204 26
-0.0295 -0.0138531 0.0370855 26 204 26
-0.0295 0.0377576 0.0736178 26 204 26
-0.0295 -0.0210564 0.0708943 26 204 26
-0.0295 0.0374393 0.0492954 26 204 26
-0.0295 -0.0353531 0.0102208 26 204 26
-0.0295 -0.0412452 0.0440524 26 204 26
-0.0295 -0.040819 -0.0930361 26 204 26
-0.0295 0.0216061 0.0560906 26 204 26
-0.0295 -0.0184048 -0.0303942 26 204 26
-0.0295 -0.0245569 -0.0827542 26 204 26
-0.0295 0.0400356 -0.0784911 26 204 26
-0.0295 0.0137221 0.0153855 26 204 26
-0.0295 -0.0424542 0.00992663 26 204 26
-0.0295 0.00333219 0.0183533 26 204 26
-0.0295 -0.0235696 0.0664484 26 204 26
-0.0295 -0.0109749 -0.0144526 26 204 26
-0.0295 0.0143802 0.0163263 26 204 26
-0.0295 -0.0380216 0.0716614 26 204 26
-0.0295 0.0159548 0.0016762 26 204 26
-0.0295 -0.0428114 0.0850811 26 204 26
-0.0295 -0.0295729 -0.0396842 26 204 26
-0.0295 -0.0399823 0.092039 26 204 26
-0.0295 0.0206294 -0.068413 26 204 26
-0.0295 -0.015045 0.0686172 26 204 26
-0.0295 0.00225172 -0.0853487 26 204 26
-0.0295 0.0428114 -0.0700938 26 204 26
-0.0295 -0.0294141 -0.0125635 26 204 26
-0.0295 0.00425264 0.00144693 26 204 26
-0.0295 -0.0134867 -0.0112781 26 204 26
-0.0295 0.0379034 0.057508 26 204 26
-0.0295 -0.0408348 -0.0743038 26 204 26
-0.0295 -0.0246036 0.0381957 26 204 26
-0.0295 0.00106691 0.0220167 26 204 26
-0.0295 -0.0349191 0.0225674 26 204 26
-0.0295 0.0382568 -0.0741407 26 204 26
-0.0295 0.0138543 0.0191142 26 204 26
-0.0295 -0.0161567 -0.0959044 26 204 26
-0.0295 -0.00527517 0.0103239 26 204 26
-0.0295 0.0412674 0.011709 26 204 26
-0.0295 -0.00402648 0.0967048 26 204 26
-0.0295 0.0309053 0.0308051 26 204 26
-0.0295 0.00271137 0.0228125 26 204 26
-0.0295 -0.0437898 -0.000132964 26 204 26
-0.0295 0.0313736 0.0952389 26 204 26
-0.0295 -0.0265085 0.064138 26 204 26
-0.0295 -0.0338199 -0.031754 26 204 26
-0.0295 -0.0347519 -0.0408092 26 204 26
-0.0295 0.02548 -0.0968222 26 204 26
-0.0295 -0.032959 0.0378097 26 204 26
-0.0295 -0.036932 0.0224752 26 204 26
-0.0295 -0.000908402 0.0153912 26 204 26
-0.0295 -0.0274893 -0.0846815 26 204 26
-0.0295 0.0114183 -0.0117151 26 204 26
-0.0295 0.00849825 0.0140546 26 204 26
-0.0295 -0.0224977 0.0680583 26 204 26
-0.0295 -0.0244614 0.0334108 26 204 26
-0.0295 -0.0418556 0.0699479 26 204 26
-0.0295 0.0193811 0.0206107 26 204 26
-0.0295 0.00872428 0.0376115 26 204 26
-0.0295 0.0444906 -0.0573088 26 204 26
-0.0295 0.0437028 -0.0762488 26 204 26
-0.0295 0.0119024 -0.0518025 26 204 26
-0.0295 0.0226351 0.0856181 26 204 26
-0.0295 0.0441306 0.00265787 26 204 26
-0.0295 0.028723 -0.0155182 26 204 26
-0.0295 0.0346459 -0.0752164 26 204 26
-0.0295 -0.0208388 -0.0598607 26 204 26
-0.0295 -0.00201948 0.0233269 26 204 26
-0.0295 0.0286658 0.0765104 26 204 26
-0.0295 -0.0207494 -0.041211 26 204 26
-0.0295 0.0134678 -0.0454531 26 204 26
-0.0295 0.0132302 -0.092215 26 204 26
-0.0295 -0.0266356 -0.0340333 26 204 26
-0.0295 -0.0245923 0.0510961 26 204 26
-0.0295 0.0343554 -0.0601127 26 204 26
-0.0295 0.0267852 -0.0109115 26 204 26
-0.0295 -0.00737488 0.0215682 26 204 26
-0.0295 0.0388761 0.0411078 26 204 26
-0.0295 -0.0354465 -0.0605096 26 204 26
-0.0295 0.0128788 -0.0574958 26 204 26
-0.0295 0.0240138 0.0189898 26 204 26
-0.0295 -0.0262514 0.0105981 26 204 26
-0.0295 -0.0320898 -0.0164756 26 204 26
-0.0295 0.0268595 -0.00211939 26 204 26
-0.0295 -0.000960591 0.0990364 26 204 26
-0.0295 -0.00553439 -0.0491676 26 204 26
-0.0295 0.00513595 -0.0653234 26 204 26
-0.0295 -0.015384 0.00913455 26 204 26
-0.0295 -0.024462 0.0680459 26 204 26
-0.0295 0.0128106 0.0182742 26 204 26
-0.0295 -0.0387932 -0.0306009 26 204 26
-0.0295 0.0183722 0.095482 26 204 26
-0.0295 0.0398569 -0.0196889 26 204 26
-0.0295 0.0158942 0.0327299 26 204 26
-0.0295 0.00834548 0.0354144 26 204 26
-0.0295 0.044018 -0.0973435 26 204 26
-0.0295 -0.0142039 -0.0466151 26 204 26
-0.0295 0.0364298 0.0166525 26 204 26
-0.0295 0.0188229 -0.0489453 26 204 26
-0.0295 0.00497285 -0.0355196 26 204 26
-0.0295 0.0279982 -0.0103865 26 204 26
-0.0295 0.0257319 -0.0179416 26 204 26
-0.0295 -0.00593822 0.0942551 26 204 26
-0.0295 0.042991 0.0323687 26 204 26
-0.0295 0.00621998 0.0414945 26 204 26
-0.0295 -0.0109092 0.0664037 26 204 26
-0.0295 0.019479 -0.0862978 26 204 26
-0.0295 -0.0278085 0.0529907 26 204 26
-0.0295 0.0259931 -0.0291176 26 204 26
-0.0295 0.00612123 0.0798618 26 204 26
-0.0295 0.0207775 0.0434707 26 204 26
-0.0295 -0.0298539 0.0309764 26 204 26
-0.0295 0.0162649 -0.0183327 26 204 26
-0.0295 -0.00589573 0.0196837 26 204 26
-0.0295 0.00100069 0.00440366 26 204 26
-0.0295 0.0382581 -0.0123504 26 204 26
-0.0295 0.00305664 0.0579793 26 204 26
-0.0295 -0.0230514 0.0338954 26 204 26
-0.0295 0.026436 -0.0212025 26 204 26
-0.0295 0.021099 -0.0668464 26 204 26
-0.0295 0.0104664 0.0528825 26 204 26
-0.0295 0.0443854 -0.0268316 26 204 26
-0.0295 -0.0207431 0.00378702 26 204 26
-0.0295 0.0185228 -0.0865732 26 204 26
-0.0295 0.0398645 5.68643e-05 26 204 26
-0.0295 0.00532804 -0.0581281 26 204 26
-0.0295 -0.0119436 -0.0339688 26 204 26
-0.0295 7.80233e-05 -0.0687449 26 204 26
-0.0295 -0.00232268 0.0559751 26 204 26
-0.0295 -0.0164524 0.05707 26 204 26
-0.0295 0.0431197 -0.0205365 26 204 26
-0.0295 -0.0097386 -0.0343506 26 204 26
-0.0295 0.0291189 -0.0203344 26 204 26
-0.0295 -0.0396425 -0.0411464 26 204 26
-0.0295 0.019346 0.0560195 26 204 26
-0.0295 0.00417429 0.0341656 26 204 26
-0.0295 -0.0380364 -0.079094 26 204 26
-0.0295 0.0180252 0.0867635 26 204 26
-0.0295 0.0403335 0.0659512 26 204 26
-0.0295 0.02674 0.0761937 26 204 26
-0.0295 -0.0440752 0.00761244 26 204 26
-0.0295 0.0291326 -0.0332698 26 204 26
-0.0295 -0.00528241 0.00482625 26 204 26
-0.0295 -0.021025 0.0861115 26 204 26
-0.0295 0.0286038 0.0991474 26 204 26
-0.0295 0.00108015 -0.0145008 26 204 26
-0.0295 0.00315904 0.0295501 26 204 26
-0.0295 -0.0331986 0.0252624 26 204 26
-0.0295 -0.00961078 0.0959374 26 204 26
-0.0295 -0.0409578 0.0657158 26 204 26
-0.0295 -0.000222274 0.0374657 26 204 26
-0.0295 0.0197584 -0.0784103 26 204 26
-0.0295 -0.00864025 -0.0975263 26 204 26
-0.0295 -0.000778573 -0.0537176 26 204 26
-0.0295 0.0198072 -0.0114393 26 204 26
-0.0295 -0.0232422 -0.0781974 26 204 26
-0.0295 -0.0224879 -0.0484121 26 204 26
-0.0295 -0.0102717 -0.0528934 26 204 26
-0.0295 0.0430735 -0.0177666 26 204 26
-0.0295 -0.0220175 -0.0010328 26 204 26
-0.0295 -0.00554248 0.0489624 26 204 26
-0.0295 -0.0331896 0.0665147 26 204 26
-0.0295 0.0143611 0.0419593 26 204 26
-0.0295 0.0432396 -0.0156398 26 204 26
-0.0295 -0.00303743 0.0879418 26 204 26
-0.0295 0.0231473 -0.0423494 26 204 26
-0.0295 0.0195051 -0.0133015 26 204 26
-0.0295 -0.0245203 0.0228456 26 204 26
-0.0295 0.0045709 0.0233074 26 204 26
0.0295 -0.00775756 0.0276809 26 204 26
0.0295 -0.0265477 -0.0893688 26 204 26
0.0295 -0.00141835 0.0269025 26 204 26
0.0295 -0.0318947 0.018021 26 204 26
0.0295 0.0412858 0.0763274 26 204 26
0.0295 -0.0100121 0.0986673 26 204 26
0.0295 -0.0043439 -0.0190814 26 204 26
0.0295 -0.00394456 0.0446626 26 204 26
0.0295 0.0171968 0.0899353 26 204 26
0.0295 -0.0388072 -0.00273162 26 204 26
0.0295 0.011893 0.0805558 26 204 26
0.0295 0.00504934 0.0602584 26 204 26
0.0295 -0.0174189 0.064606 26 204 26
0.0295 -0.0102906 0.0638371 26 204 26
0.0295 0.0153277 0.0518902 26 204 26
0.0295 0.0350223 0.059898 26 204 26
0.0295 -0.0443634 -0.0147566 26 204 26
0.0295 0.0152082 -0.00702459 26 204 26
0.0295 0.00953365 -0.0311733 26 204 26
0.0295 -0.0090611 -0.0443648 26 204 26
0.0295 0.0408272 0.0440093 26 204 26
0.0295 0.0123588 -0.0319829 26 204 26
0.0295 -0.0373913 0.0687262 26 204 26
0.0295 -0.0279213 -0.0273947 26 204 26
0.0295 0.0229067 0.0306193 26 204 26
0.0295 -0.00732292 0.0317921 26 204 26
0.0295 -0.0305209 -0.00665797 26 204 26
0.0295 -0.0302632 -0.0772994 26 204 26
0.0295 0.0431775 0.0854501 26 204 26
0.0295 -0.000493214 -0.057308 26 204 26
0.0295 -0.0362283 -0.0492913 26 204 26
0.0295 0.0410631 -0.000293647 26 204 26
0.0295 0.0395143 -0.0612091 26 204 26
0.0295 -0.0147435 -0.00597392 26 204 26
0.0295 0.0397746 0.00458563 26 204 26
0.0295 -0.00407587 -0.0377099 26 204 26
0.0295 -0.0259581 -0.0487176 26 204 26
0.0295 -0.0324719 -0.0687845 26 204 26
0.0295 0.0124933 0.0814435 26 204 26
0.0295 -0.021568 -0.0227058 26 204 26
0.0295 -0.0232596 -0.0451915 26 204 26
0.0295 -0.0312943 0.018948 26 204 26
0.0295 0.0131086 -0.064591 26 204 26
0.0295 0.0118908 0.0977459 26 204 26
0.0295 0.0119613 -0.0732306 26 204 26
0.0295 -0.0363686 -0.0114521 26 204 26
0.0295 -0.0369135 -0.0973213 26 204 26
0.0295 -0.0411484 -0.0380527 26 204 26
0.0295 -0.00256104 0.0497516 26 204 26
0.0295 -0.020295 -0.0762911 26 204 26
0.0295 0.038732 0.0614892 26 204 26
0.0295 -0.0187594 -0.0785105 26 204 26
0.0295 -0.00672948 -0.00294799 26 204 26
0.0295 0.0407269 -0.0174228 26 204 26
0.0295 0.005011 -0.0110139 26 204 26
0.0295 0.0104109 -0.0257502 26 204 26
0.0295 0.00291223 0.0778355 26 204 26
0.0295 -0.0180495 0.0380916 26 204 26
0.0295 -0.0272367 -0.0454983 26 204 26
0.0295 -0.0128447 -0.0825282 26 204 26
0.0295 0.0402423 -0.0401122 26 204 26
0.0295 -0.0389119 0.0763459 26 204 26
0.0295 -0.0414355 0.0693525 26 204 26
0.0295 0.00780144 0.0201564 26 204 26
0.0295 0.0362537 -0.091616 26 204 26
0.0295 -0.0230294 -0.0599904 26 204 26
0.0295 0.00678863 0.00924943 26 204 26
0.0295 0.0142705 -0.0816445 26 204 26
0.0295 -0.0275395 0.0474922 26 204 26
0.0295 0.0004728 0.0613699 26 204 26
0.0295 0.0268485 0.00570398 26 204 26
0.0295 -0.00288591 0.0715451 26 204 26
0.0295 0.00988054 0.0370219 26 204 26
0.0295 -0.0439093 -0.0890884 26 204 26
0.0295 -0.0218683 -0.0469051 26 204 26
0.0295 -0.0165678 -0.0745451 26 204 26
0.0295 0.0444371 -0.0399609 26 204 26
0.0295 -0.00327333 -0.0392934 26 204 26
0.0295 0.0274953 0.0626176 26 204 26
0.0295 -0.029547 -0.0615041 26 204 26
0.0295 -0.0243404 -0.0539254 26 204 26
0.0295 0.0274382 0.0673158 26 204 26
0.0295 -0.024779 0.0204381 26 204 26
0.0295 0.011067 -0.0164418 26 204 26
0.0295 -0.0115505 0.078875 26 204 26
0.0295 0.00283474 0.066411 26 204 26
0.0295 0.0132284 0.00744196 26 204 26
0.0295 -0.00948074 -0.048266 26 204 26
0.0295 -0.01781 0.0355172 26 204 26
0.0295 -0.0183889 0.0342108 26 204 26
0.0295 -0.0281474 0.0513493 26 204 26
0.0295 -0.0329863 -0.0102401 26 204 26
0.0295 0.00267535 0.0836053 26 204 26
0.0295 -0.0358717 -0.0135423 26 204 26
0.0295 0.0100091 -0.076955 26 204 26
0.0295 0.0293594 0.0689247 26 204 26
0.0295 -0.0296425 0.066845 26 204 26
0.0295 -0.00155739 -0.0978905 26 204 26
0.0295 0.0290277 -0.027101 26 204 26
0.0295 0.0281741 0.062469 26 204 26
0.0295 0.018456 -0.0834999 26 204 26
0.0295 0.0112156 -0.0664666 26 204 26
0.0295 -0.0260448 -0.0336527 26 204 26
0.0295 0.0435417 -0.0799414 26 204 26
0.0295 -0.0196212 -0.0869096 26 204 26
0.0295 0.0287139 0.0943252 26 204 26
0.0295 -0.0383258 0.0791837 26 204 26
0.0295 0.0359122 0.0592976 26 204 26
0.0295 0.0318157 0.0566479 26 204 26
0.0295 0.0369745 -0.0720876 26 204 26
0.0295 0.0158679 0.0956403 26 204 26
0.0295 0.0216121 -0.0455433 26 204 26
0.0295 0.010476 -0.00831618 26 204 26
0.0295 -0.0244225 0.0347325 26 204 26
0.0295 -0.0251267 0.0355524 26 204 26
0.0295 -0.034141 -0.0510375 26 204 26
0.0295 0.0265712 0.0749875 26 204 26
0.0295 0.024645 -0.0635349 26 204 26
0.0295 0.00415061 0.00855125 26 204 26
0.0295 0.0385966 -0.0744456 26 204 26
0.0295 0.0334677 -0.0929496 26 204 26
0.0295 -0.0417072 -0.00894302 26 204 26
0.0295 -0.021244 0.0352365 26 204 26
0.0295 0.0341447 0.0827274 26 204 26
0.0295 -0.0090053 0.0964178 26 204 26
0.0295 -0.0206202 -0.0764112 26 204 26
0.0295 0.0299729 -0.070964 26 204 26
0.0295 -0.0075394 -0.0521589 26 204 26
0.0295 -0.0161013 0.0803944 26 204 26
0.0295 -0.0040115 0.0133546 26 204 26
0.0295 -0.0236303 -0.0666988 26 204 26
0.0295 -0.00240498 0.0632778 26 204 26
0.0295 -0.024682 0.052599 26 204 26
0.0295 -0.0240742 0.0346594 26 204 26
0.0295 -0.00999359 0.00127665 26 204 26
0.0295 0.00951016 0.0564455 26 204 26
0.0295 0.0427579 0.0466365 26 204 26
0.0295 0.0356844 0.0737059 26 204 26
0.0295 -0.0233195 0.0948024 26 204 26
0.0295 0.039786 -0.00318035 26 204 26
0.0295 0.0101549 -0.0114083 26 204 26
0.0295 -0.0154485 -0.0872478 26 204 26
0.0295 -0.0198588 0.00493651 26 204 26
0.0295 -0.0205711 0.0288807 26 204 26
0.0295 0.0115294 -0.0567279 26 204 26
0.0295 0.0404836 -0.094062 26 204 26
0.0295 -0.0168218 -0.0249199 26 204 26
0.0295 0.0344231 -0.0457672 26 204 26
0.0295 0.017829 -0.00369392 26 204 26
0.0295 0.0406879 0.00695197 26 204 26
0.0295 -0.03044 -0.0981252 26 204 26
0.0295 0.0185991 -0.0605576 26 204 26
0.0295 -0.00893488 0.0200833 26 204 26
0.0295 0.0433936 0.00447497 26 204 26
0.0295 0.0430177 0.0814532 26 204 26
0.0295 0.0173917 -0.0563516 26 204 26
0.0295 0.0231579 -0.0120345 26 204 26
0.0295 0.0229982 0.0579472 26 204 26
0.0295 -0.00870641 -0.0338194 26 204 26
0.0295 -0.00978801 0.042063 26 204 26
0.0295 -0.00637057 0.0654297 26 204 26
0.0295 -0.0110681 -0.0515318 26 204 26
0.0295 -0.0304049 0.0876021 26 204 26
0.0295 -0.0109749 -0.0953167 26 204 26
0.0295 -0.0383343 0.0206064 26 204 26
0.0295 0.0229886 0.0411359 26 204 26
0.0295 0.033753 -0.0175433 26 204 26
0.0295 0.0361467 -0.0319727 26 204 26
0.0295 -0.0432885 0.0412223 26 204 26
0.0295 0.00346956 0.0744356 26 204 26
0.0295 0.0301113 0.0353102 26 204 26
0.0295 0.0245871 -0.0308092 26 204 26
0.0295 -0.0275253 -0.0971729 26 204 26
0.0295 0.00874118 0.0545138 26 204 26
0.0295 -0.0134184 0.0210615 26 204 26
0.0295 0.0230641 -0.0631344 26 204 26
0.0295 -0.0337047 0.0250733 26 204 26
0.0118106 0.0445 -0.0146258 26 204 26
-0.0192221 0.0445 0.0123957 26 204 26
0.00321753 0.0445 -0.0204385 26 204 26
0.0072961 0.0445 -0.0991578 26 204 26
0.0122896 0.0445 0.0490374 26 204 26
0.0044967 0.0445 -0.0587521 26 204 26
-0.00659835 0.0445 0.0861201 26 204 26
0.0166268 0.0445 0.0983029 26 204 26
-0.0185132 0.0445 0.0303312 26 204 26
0.0284517 0.0445 -0.0673983 26 204 26
0.0256063 0.0445 -0.0401774 26 204 26
0.0111256 0.0445 0.0730198 26 204 26
-0.0147895 0.0445 -0.0791383 26 204 26
0.00548253 0.0445 0.0962698 26 204 26
0.0185825 0.0445 0.051827 26 204 26
0.0244589 0.0445 -0.0336518 26 204 26
0.0120159 0.0445 0.0950027 26 204 26
0.024628 0.0445 -0.0535811 26 204 26
0.0101901 0.0445 -0.0507529 26 204 26
-0.0192523 0.0445 -0.0812136 26 204 26
0.00251769 0.0445 -0.09365 26 204 26
-0.0288957 0.0445 0.0709281 26 204 26
-0.0269665 0.0445 0.071707 26 204 26
0.0207936 0.0445 -0.00936786 26 204 26
-0.000332996 0.0445 0.0102223 26 204 26
0.028377 0.0445 -0.034354 26 204 26
-0.0236991 0.0445 0.0156324 26 204 26
-0.00702239 0.0445 0.0196645 26 204 26
0.00845779 0.0445 -0.060733 26 204 26
-0.00736531 0.0445 0.0270888 26 204 26
-0.00720801 0.0445 0.0303964 26 204 26
0.0113745 0.0445 -0.0185818 26 204 26
-0.016214 0.0445 0.0461049 26 204 26
-0.0105057 0.0445 0.0745388 26 204 26
0.023588 0.0445 -0.0400565 26 204 26
0.00104143 0.0445 -0.0569399 26 204 26
0.0248139 0.0445 -0.0747021 26 204 26
-0.00823606 0.0445 -0.0117686 26 204 26
-0.00701493 0.0445 0.0320709 26 204 26
0.0127837 0.0445 -0.0306045 26 204 26
0.00106981 0.0445 0.0198257 26 204 26
0.000360714 0.0445 -0.0862919 26 204 26
-0.0138692 0.0445 0.0163809 26 204 26
-0.0189256 0.0445 -0.0711466 26 204 26
-0.0131299 0.0445 0.0912944 26 204 26
-0.00776563 0.0445 -0.0498978 26 204 26
-0.0244847 0.0445 -0.0538038 26 204 26
-0.00141677 0.0445 0.0345373 26 204 26
0.0072091 0.0445 0.0258729 26 204 26
0.0211797 0.0445 -0.0244583 26 204 26
-0.00616737 0.0445 0.04321 26 204 26
-0.0139627 0.0445 0.0972518 26 204 26
0.0278032 0.0445 0.0351002 26 204 26
0.00986244 0.0445 0.0371524 26 204 26
-0.00906019 0.0445 0.0799652 26 204 26
0.0272714 0.0445 -0.0308125 26 204 26
0.0270994 0.0445 0.0811741 26 204 26
0.0220968 0.0445 0.0420901 26 204 26
-0.00950974 0.0445 -0.0720017 26 204 26
0.00110437 0.0445 0.0791454 26 204 26
0.0212953 0.0445 -0.00460758 26 204 26
0.0161975 0.0445 -0.0213184 26 204 26
-0.0244909 0.0445 -0.0528187 26 204 26
0.0187737 0.0445 0.0732581 26 204 26
0.0125982 0.0445 -0.0124355 26 204 26
-0.0234573 0.0445 -0.098172 26 204 26
-0.0090956 0.0445 0.0150169 26 204 26
0.00355232 0.0445 0.0948623 26 204 26
0.00737047 0.0445 -0.0901969 26 204 26
0.00581897 0.0445 0.0129217 26 204 26
-0.00914974 0.0445 -0.0496432 26 204 26
-0.0291801 0.0445 -0.0323492 26 204 26
0.00354957 0.0445 -0.0626447 26 204 26
0.0250045 0.0445 0.0255373 26 204 26
0.0211589 0.0445 0.0352604 26 204 26
-0.0188497 0.0445 -0.0107845 26 204 26
-0.00583228 0.0445 -0.0499371 26 204 26
0.012195 0.0445 0.0643841 26 204 26
0.011533 0.0445 0.0722392 26 204 26
0.0212369 0.0445 0.0360434 26 204 26
0.00424472 0.0445 0.0747011 26 204 26
0.0113749 0.0445 -0.0760931 26 204 26
-0.0209914 0.0445 0.0142281 26 204 26
0.0128653 0.0445 0.0538916 26 204 26
0.0147325 0.0445 0.091374 26 204 26
0.0224614 0.0445 0.0670953 26 204 26
-0.021373 0.0445 0.0916859 26 204 26
-0.0230152 0.0445 -0.0482671 26 204 26
-0.0200385 0.0445 0.0905636 26 204 26
-0.0146712 0.0445 0.0954778 26 204 26
0.00704958 0.0445 -0.0690926 26 204 26
0.0270435 0.0445 0.0266201 26 204 26
0.0095854 0.0445 0.056612 26 204 26
0.0106098 0.0445 -0.0312053 26 204 26
-0.0172933 0.0445 -0.0715455 26 204 26
0.0160167 0.0445 -0.0939524 26 204 26
-0.0264073 0.0445 -0.0683343 26 204 26
0.0217878 0.0445 0.0736634 26 204 26
0.00592333 0.0445 -0.0333645 26 204 26
-0.0108904 0.0445 -0.0204506 26 204 26
0.0154692 0.0445 -0.0196947 26 204 26
0.0107769 0.0445 -0.00523874 26 204 26
-0.0132791 0.0445 -0.0539358 26 204 26
0.00221916 0.0445 -0.0387652 26 204 26
-0.0237611 0.0445 -0.0921545 26 204 26
-0.028381 0.0445 0.0597652 26 204 26
0.00767002 0.0445 0.0260874 26 204 26
-0.0185269 0.0445 -0.0565244 26 204 26
-0.0253075 0.0445 0.0523043 26 204 26
0.0146114 0.0445 0.0812827 26 204 26
0.0252138 0.0445 -0.0409178 26 204 26
-0.0271643 0.0445 0.0872752 26 204 26
-0.00230309 0.0445 0.00400021 26 204 26
0.00760104 0.0445 -0.00587463 26 204 26
0.00689815 0.0445 0.0787656 26 204 26
0.00238564 0.0445 -0.0335443 26 204 26
-0.0123163 0.0445 -0.0638243 26 204 26
0.0286729 -0.0445 -0.0210176 26 204 26
-0.0270269 -0.0445 -0.0833334 26 204 26
0.00482254 -0.0445 -0.0485269 26 204 26
0.000163654 -0.0445 -0.0566213 26 204 26
0.0275463 -0.0445 -0.0688501 26 204 26
-0.0154402 -0.0445 -0.0945486 26 204 26
-0.0048154 -0.0445 0.0745907 26 204 26
-0.00453048 -0.0445 0.0870504 26 204 26
-0.00732164 -0.0445 0.0472798 26 204 26
0.000735657 -0.0445 0.0611236 26 204 26
0.00565226 -0.0445 0.0207701 26 204 26
-0.0268711 -0.0445 0.0472895 26 204 26
-0.0176987 -0.0445 0.0560579 26 204 26
-0.00583756 -0.0445 0.0495136 26 204 26
-0.027035 -0.0445 -0.0117941 26 204 26
0.018351 -0.0445 -0.0257036 26 204 26
-0.0276622 -0.0445 -0.0122588 26 204 26
0.00857318 -0.0445 0.0765286 26 204 26
-0.0214077 -0.0445 0.0964339 26 204 26
0.0105083 -0.0445 -0.0139962 26 204 26
-0.00951424 -0.0445 -0.0674755 26 204 26
-0.0022003 -0.0445 -0.0190229 26 204 26
0.0235439 -0.0445 0.0474291 26 204 26
0.0168518 -0.0445 -0.083319 26 204 26
0.00979415 -0.0445 0.0577671 26 204 26
-0.0273394 -0.0445 0.0890168 26 204 26
0.0224003 -0.0445 -0.0949755 26 204 26
0.000392768 -0.0445 0.0101418 26 204 26
0.00871558 -0.0445 0.0341312 26 204 26
-0.0050253 -0.0445 0.0500648 26 204 26
-0.025549 -0.0445 -0.0711646 26 204 26
0.0274083 -0.0445 -0.0657026 26 204 26
0.00778797 -0.0445 -0.0621686 26 204 26
-0.00734436 -0.0445 -0.0972029 26 204 26
-0.0130055 -0.0445 -0.0657738 26 204 26
0.0120849 -0.0445 0.0893659 26 204 26
0.00917453 -0.0445 0.0227691 26 204 26
-0.0294432 -0.0445 0.0566212 26 204 26
0.0145735 -0.0445 0.00764571 26 204 26
0.00770695 -0.0445 -0.0521368 26 204 26
-0.0157463 -0.0445 -0.0587251 26 204 26
-0.00192249 -0.0445 0.0561667 26 204 26
0.00113361 -0.0445 -0.0240323 26 204 26
-0.0280878 -0.0445 -0.0742712 26 204 26
0.00287164 -0.0445 -0.0829493 26 204 26
-0.0237968 -0.0445 -0.0235843 26 204 26
-0.0264739 -0.0445 -0.0151346 26 204 26
-0.0229125 -0.0445 -0.0920506 26 204 26
0.0120527 -0.0445 -0.0110843 26 204 26
-0.0101116 -0.0445 -0.00765733 26 204 26
0.0257195 -0.0445 0.0107014 26 204 26
-0.0123791 -0.0445 0.0555116 26 204 26
-0.0245279 -0.0445 -0.0947174 26 204 26
-0.00146604 -0.0445 -0.0625147 26 204 26
-0.0137838 -0.0445 -0.0511146 26 204 26
0.0146847 -0.0445 -0.067865 26 204 26
-0.0274839 -0.0445 0.0166684 26 204 26
0.00821896 -0.0445 -0.027654 26 204 26
0.0231773 -0.0445 0.0965291 26 204 26
-0.0088306 -0.0445 -0.0545755 26 204 26
-0.00947349 -0.0445 0.0572718 26 204 26
-0.0112604 -0.0445 0.047216 26 204 26
0.0199028 -0.0445 -0.0139181 26 204 26
0.0233645 -0.0445 -0.0631329 26 204 26
0.0106958 -0.0445 -0.0525777 26 204 26
0.0152647 -0.0445 0.097362 26 204 26
-0.00414826 -0.0445 0.0108554 26 204 26
-0.0204195 -0.0445 -0.0233395 26 204 26
0.0199448 -0.0445 -0.0940626 26 204 26
-0.00551102 -0.0445 0.0304338 26 204 26
0.0142688 -0.0445 -0.041415 26 204 26
-0.0150862 -0.0445 0.0278251 26 204 26
-0.0183704 -0.0445 -0.0286186 26 204 26
-0.0166613 -0.0445 -0.018713 26 204 26
-0.00819743 -0.0445 0.0988988 26 204 26
0.017459 -0.0445 -0.0859627 26 204 26
0.0289395 -0.0445 -0.0725558 26 204 26
-0.0266013 -0.0445 -0.052845 26 204 26
0.00763836 -0.0445 -0.000497698 26 204 26
0.0268955 -0.0445 -0.0816162 26 204 26
0.0159536 -0.0445 -0.0609545 26 204 26
0.0201925 -0.0445 0.0397296 26 204 26
0.0278923 -0.0445 -0.029088 26 204 26
-0.0238804 -0.0445 0.0985313 26 204 26
-0.0122331 -0.0445 -0.0924401 26 204 26
0.0263281 -0.0445 0.0780043 26 204 26
-0.0188626 -0.0445 0.0775992 26 204 26
-0.00917141 -0.0445 -0.0822181 26 204 26
-0.0292964 -0.0445 0.0845268 26 204 26
0.022428 -0.0445 -0.013926 26 204 26
0.00149282 -0.0445 0.00775304 26 204 26
-0.012685 -0.0445 -0.018341 26 204 26
0.00648204 -0.0445 0.0554774 26 204 26
-0.0196251 -0.0445 0.0448476 26 204 26
-0.0213304 -0.0445 -0.065656 26 204 26
0.0148244 -0.0445 -0.074804 26 204 26
-0.00416545 -0.0445 -0.032863 26 204 26
0.0162086 -0.0445 0.0747073 26 204 26
0.0252125 -0.0445 0.064028 26 204 26
0.0156672 -0.0445 0.0231335 26 204 26
-0.0202156 -0.0445 -0.0683615 26 204 26
0.0029996 -0.0445 -0.0208413 26 204 26
-0.00569314 -0.0445 -0.0646992 26 204 26
0.002204 -0.0445 -0.0443544 26 204 26
-0.0177488 -0.0445 0.0731008 26 204 26
-0.0102223 -0.0445 -0.0499269 26 204 26
-0.00293139 -0.0445 0.071289 26 204 26
0.0225213 -0.0445 0.0763279 26 204 26
0.00629995 -0.0445 0.0880269 26 204 26
-0.0265597 -0.0445 0.0605651 26 204 26
0.00554268 -0.0445 -0.07665 26 204 26
-0.0113673 -0.0445 -0.000827428 26 204 26
-0.0124864 -0.0445 0.00808917 26 204 26
0.00980755 -0.0445 0.07193 26 204 26
-0.0162383 -0.0445 -0.00869988 26 204 26
0.0227181 -0.0445 -0.0974298 26 204 26
0.00262373 -0.0445 0.091537 26 204 26
