ply
format ascii 1.0
comment Created by Open3D
element vertex 1138
property double x
property double y
property double z
property uchar red
property uchar green
property uchar blue
end_header
-0.0208492 -0.033602 -0.001 0 0 255
-0.00725056 0.0185223 -0.001 0 0 255
0.0103528 -0.00122323 -0.001 0 0 255
-0.00346289 -0.0244772 -0.001 0 0 255
0.00270149 -0.0134163 -0.001 0 0 255
-0.00387994 -0.023462 -0.001 0 0 255
-0.0144198 0.0218966 -0.001 0 0 255
0.0126122 0.0373892 -0.001 0 0 255
0.00329653 0.0405467 -0.001 0 0 255
0.0296921 -0.018476 -0.001 0 0 255
-0.0255831 0.00305876 -0.001 0 0 255
0.0173732 -0.0178954 -0.001 0 0 255
-0.00720563 -0.0340442 -0.001 0 0 255
0.0169128 0.0352997 -0.001 0 0 255
0.00868169 -0.0217985 -0.001 0 0 255
-0.0236601 -0.0197402 -0.001 0 0 255
0.0087975 -0.00125229 -0.001 0 0 255
0.0156341 0.0306643 -0.001 0 0 255
0.0177422 -0.0326299 -0.001 0 0 255
-0.0157292 -0.0196592 -0.001 0 0 255
-0.0101384 -0.0243345 -0.001 0 0 255
-0.0078748 -0.00343441 -0.001 0 0 255
0.0123988 0.00885741 -0.001 0 0 255
0.00814803 0.0422152 -0.001 0 0 255
-0.00053504 0.0225032 -0.001 0 0 255
0.000256455 0.0325273 -0.001 0 0 255
0.0169964 -0.0172448 -0.001 0 0 255
0.00142725 0.0326141 -0.001 0 0 255
-0.0236565 -0.0299759 -0.001 0 0 255
0.0023406 0.018873 -0.001 0 0 255
-0.0213091 0.0139629 -0.001 0 0 255
-0.0232108 -0.0105252 -0.001 0 0 255
-0.0125575 0.0106255 -0.001 0 0 255
0.00523719 0.0133577 -0.001 0 0 255
0.0143866 0.0256765 -0.001 0 0 255
-0.010578 0.0169213 -0.001 0 0 255
-0.0185564 0.0041362 -0.001 0 0 255
-0.000575047 0.00719608 -0.001 0 0 255
0.0297209 0.0104961 -0.001 0 0 255
0.0248701 -0.037903 -0.001 0 0 255
-0.0147618 0.0122547 -0.001 0 0 255
0.00772798 0.00984762 -0.001 0 0 255
-0.0124477 0.0396422 -0.001 0 0 255
0.0275504 0.0449037 -0.001 0 0 255
-0.0298557 -0.0119354 -0.001 0 0 255
0.0189931 0.00353373 -0.001 0 0 255
0.0297111 0.0432899 -0.001 0 0 255
0.00884797 -0.0312063 -0.001 0 0 255
-0.00257721 -0.0103626 -0.001 0 0 255
0.0287073 -0.0219028 -0.001 0 0 255
0.00878498 0.0150901 -0.001 0 0 255
-0.0246042 -0.00382694 -0.001 0 0 255
-0.00893615 0.0337374 -0.001 0 0 255
0.0102296 0.00609409 -0.001 0 0 255
-0.0177089 0.00973322 -0.001 0 0 255
-0.0273304 -0.0215682 -0.001 0 0 255
0.0284266 0.0261772 -0.001 0 0 255
-0.00309809 -0.00237166 -0.001 0 0 255
-0.0280936 -0.0194429 -0.001 0 0 255
-0.00699143 -0.0227042 -0.001 0 0 255
0.029601 0.0320858 -0.001 0 0 255
-0.0181329 0.00334645 -0.001 0 0 255
0.0200822 0.0178199 -0.001 0 0 255
-0.00838198 -0.0234133 -0.001 0 0 255
0.0198563 0.0165726 -0.001 0 0 255
-0.0274445 -0.00171937 -0.001 0 0 255
0.00163296 0.0267996 -0.001 0 0 255
-0.0259293 -0.0357177 -0.001 0 0 255
0.00622969 0.0436035 -0.001 0 0 255
0.0100641 -0.0231597 -0.001 0 0 255
-0.00108167 -0.010126 -0.001 0 0 255
-0.00684056 -0.0097078 -0.001 0 0 255
0.010147 0.0449799 -0.001 0 0 255
0.00323291 -0.014437 -0.001 0 0 255
-0.0105985 0.0131802 -0.001 0 0 255
-0.0122787 -0.0397218 -0.001 0 0 255
0.00871317 0.0125091 -0.001 0 0 255
0.0100059 -0.0200073 -0.001 0 0 255
0.0283496 -0.00898856 -0.001 0 0 255
0.015431 -0.0404766 -0.001 0 0 255
-0.0151033 -0.0376313 -0.001 0 0 255
-0.0198737 -0.0117125 -0.001 0 0 255
-0.00145691 -0.0126144 -0.001 0 0 255
-0.0253948 0.0200936 -0.001 0 0 255
-0.0271075 -0.0135387 -0.001 0 0 255
0.00877724 0.0202618 -0.001 0 0 255
0.00621093 0.0166518 -0.001 0 0 255
0.0187667 -0.00338866 -0.001 0 0 255
0.00395734 0.0213473 -0.001 0 0 255
0.0108984 -0.0224299 -0.001 0 0 255
0.0212564 -0.0428183 -0.001 0 0 255
-0.014201 0.0259811 -0.001 0 0 255
-0.00119131 0.0348935 -0.001 0 0 255
0.0147298 0.0089471 -0.001 0 0 255
0.00846632 -0.0403319 -0.001 0 0 255
-0.0230915 0.0167209 -0.001 0 0 255
-0.0249035 0.00627082 -0.001 0 0 255
0.00621039 -0.0151887 -0.001 0 0 255
0.0101656 -0.026951 -0.001 0 0 255
0.0104876 0.0217586 -0.001 0 0 255
0.0205949 0.0331899 -0.001 0 0 255
0.0260342 0.00671264 -0.001 0 0 255
0.0219207 0.0192144 -0.001 0 0 255
-0.025668 -0.00656281 -0.001 0 0 255
-0.00545886 -0.0430195 -0.001 0 0 255
0.0213593 -0.0118998 -0.001 0 0 255
-0.0289116 -0.00950907 -0.001 0 0 255
0.000905956 -0.0426026 -0.001 0 0 255
-0.0202757 -0.0181189 -0.001 0 0 255
-0.0166115 -0.0287545 -0.001 0 0 255
0.0185101 -0.0327335 -0.001 0 0 255
-0.0211031 -0.0342043 -0.001 0 0 255
-0.0280351 -0.0357433 -0.001 0 0 255
0.0141234 0.026608 -0.001 0 0 255
-0.0170166 -0.00448062 -0.001 0 0 255
-0.0239724 0.032169 -0.001 0 0 255
0.0169852 -0.00161206 -0.001 0 0 255
0.0201238 -0.0259481 -0.001 0 0 255
-0.0226671 0.0266783 -0.001 0 0 255
0.00115041 0.0201715 -0.001 0 0 255
-0.0198107 0.039621 -0.001 0 0 255
-0.00459552 -0.0262272 -0.001 0 0 255
0.00309569 -0.0306593 -0.001 0 0 255
0.000636341 0.0283942 -0.001 0 0 255
-0.0168756 -0.0237504 -0.001 0 0 255
0.0283446 -0.0123411 -0.001 0 0 255
0.0290472 -0.00873692 -0.001 0 0 255
-0.0215944 0.0264204 -0.001 0 0 255
-0.0218093 -0.0414936 -0.001 0 0 255
-0.0271452 -0.00162991 -0.001 0 0 255
-0.0161876 -0.0254814 -0.001 0 0 255
0.00027128 -0.00819913 -0.001 0 0 255
0.0233959 0.00632438 -0.001 0 0 255
-0.0185318 -0.0312787 -0.001 0 0 255
-0.0119592 0.00151263 -0.001 0 0 255
-0.0153478 0.0336996 -0.001 0 0 255
-4.47401e-05 0.0269328 -0.001 0 0 255
-0.00224414 -0.0244383 -0.001 0 0 255
-0.0292956 0.0319272 -0.001 0 0 255
0.0185171 -0.0435852 -0.001 0 0 255
-0.0268137 -0.00638769 -0.001 0 0 255
0.0150181 0.0281599 -0.001 0 0 255
-0.000535096 -0.0243114 -0.001 0 0 255
-0.000181434 -0.0171183 -0.001 0 0 255
0.0105006 0.0422437 -0.001 0 0 255
-0.0245621 0.00325662 -0.001 0 0 255
-0.0160165 -0.0399438 -0.001 0 0 255
-0.0157704 0.0350105 -0.001 0 0 255
0.0188458 -0.0310356 -0.001 0 0 255
0.0293599 0.00267612 -0.001 0 0 255
-0.0258292 0.000617368 -0.001 0 0 255
0.0066336 -0.0208641 -0.001 0 0 255
-0.0184451 -0.00709513 -0.001 0 0 255
0.0210544 -0.0190499 -0.001 0 0 255
-0.0209715 -0.0349159 -0.001 0 0 255
0.0268461 -0.0232678 -0.001 0 0 255
1.49427e-05 0.0250604 -0.001 0 0 255
-0.0278129 -0.00262016 -0.001 0 0 255
-0.00628984 -0.0060169 -0.001 0 0 255
-0.0215997 -0.0342829 -0.001 0 0 255
0.0125258 0.00410549 -0.001 0 0 255
0.0221609 0.0418008 -0.001 0 0 255
0.00701824 0.0288307 -0.001 0 0 255
0.0264704 -0.0109769 -0.001 0 0 255
-0.00488871 0.00354685 -0.001 0 0 255
0.0100925 -0.00108569 -0.001 0 0 255
-0.0193879 -0.0206726 -0.001 0 0 255
0.0238105 0.019309 -0.001 0 0 255
-0.011496 -0.0252038 -0.001 0 0 255
-0.0242674 -0.0152196 -0.001 0 0 255
-0.000690967 -0.0147872 -0.001 0 0 255
0.0116441 0.0170771 -0.001 0 0 255
-0.0179657 0.0138445 -0.001 0 0 255
0.00740695 0.0115111 -0.001 0 0 255
-0.0160297 -0.0219416 -0.001 0 0 255
0.00492344 -0.00778437 -0.001 0 0 255
-0.02836 0.0192346 -0.001 0 0 255
0.0276234 -0.0173805 -0.001 0 0 255
-0.00297506 -0.00706056 -0.001 0 0 255
0.019213 0.0433717 -0.001 0 0 255
-0.00881307 -0.0279457 -0.001 0 0 255
0.0119827 0.0344333 -0.001 0 0 255
-0.0227673 0.0206035 -0.001 0 0 255
0.0042659 0.0194266 -0.001 0 0 255
0.00661093 0.0178101 -0.001 0 0 255
-0.02709 0.044133 -0.001 0 0 255
-0.0143918 -0.0225563 -0.001 0 0 255
-0.0231857 -0.0365834 -0.001 0 0 255
0.027163 0.0292746 -0.001 0 0 255
-0.0110009 -0.00422631 -0.001 0 0 255
0.0209255 -0.0199765 -0.001 0 0 255
0.0165428 0.0395011 -0.001 0 0 255
-0.0152121 -0.0136205 -0.001 0 0 255
0.00627331 0.0394487 -0.001 0 0 255
-0.0012498 0.00688581 -0.001 0 0 255
-0.00405014 0.025711 -0.001 0 0 255
0.0284305 0.0129149 -0.001 0 0 255
0.025749 -0.00556816 -0.001 0 0 255
0.010132 -0.0359061 -0.001 0 0 255
-0.0188477 0.0242739 -0.001 0 0 255
0.0033899 0.0333629 -0.001 0 0 255
0.0277812 0.0263187 -0.001 0 0 255
-0.020892 0.0101984 -0.001 0 0 255
-0.0157787 -0.00639196 -0.001 0 0 255
0.0215016 0.0329841 -0.001 0 0 255
-0.0154266 -0.0444905 -0.001 0 0 255
-0.0142698 -0.034196 -0.001 0 0 255
0.0237764 -0.0224684 -0.001 0 0 255
-0.0211974 0.0141538 -0.001 0 0 255
0.00113989 -0.0173122 -0.001 0 0 255
-0.00873158 0.0173175 -0.001 0 0 255
-0.00872007 0.0438084 -0.001 0 0 255
-0.0182316 0.0257898 -0.001 0 0 255
-0.00535341 0.0145821 -0.001 0 0 255
0.022803 -0.0152721 -0.001 0 0 255
0.0100221 0.02527 -0.001 0 0 255
0.000409515 -0.00512072 -0.001 0 0 255
0.0184897 0.0101685 -0.001 0 0 255
0.0109402 -0.028195 -0.001 0 0 255
0.0161117 0.00985453 -0.001 0 0 255
0.0271229 -0.0265076 -0.001 0 0 255
0.024389 -0.0173604 -0.001 0 0 255
-0.019356 0.00601793 -0.001 0 0 255
0.00799626 -0.02501 -0.001 0 0 255
0.0204585 0.0393267 -0.001 0 0 255
-0.0186842 0.0263453 -0.001 0 0 255
-0.0175481 -0.0440601 -0.001 0 0 255
-0.0198381 0.000479481 -0.001 0 0 255
-0.0112081 0.0262433 -0.001 0 0 255
0.0182588 -0.0386779 -0.001 0 0 255
0.00823639 -0.0116912 -0.001 0 0 255
0.0145548 0.0178835 -0.001 0 0 255
0.00481561 0.0234478 -0.001 0 0 255
-0.0167299 0.0353076 -0.001 0 0 255
-0.0208091 -0.0265286 -0.001 0 0 255
0.0141758 0.0185265 -0.001 0 0 255
-0.0244993 0.0222467 -0.001 0 0 255
-0.0282681 0.0280282 -0.001 0 0 255
-0.00765765 -0.0150326 -0.001 0 0 255
-0.0021654 -0.0228147 -0.001 0 0 255
-0.0178001 0.0104971 -0.001 0 0 255
-0.00696265 -0.041788 -0.001 0 0 255
0.00756407 -0.00548244 -0.001 0 0 255
0.0200168 0.0192727 -0.001 0 0 255
0.0119775 -0.0110158 -0.001 0 0 255
-0.0226182 0.0193391 -0.001 0 0 255
-0.00127996 0.0336521 -0.001 0 0 255
0.00561739 0.0170088 -0.001 0 0 255
0.0161362 0.0229437 -0.001 0 0 255
0.0136468 -0.0196977 -0.001 0 0 255
-0.0125704 0.00462957 -0.001 0 0 255
-0.0183123 -0.0400288 -0.001 0 0 255
0.00106393 -0.0180938 -0.001 0 0 255
-0.0276034 0.0204682 -0.001 0 0 255
0.00174467 -0.0283918 -0.001 0 0 255
0.00130479 -0.0142081 -0.001 0 0 255
-0.0200812 0.000725224 -0.001 0 0 255
0.0196774 0.0410356 -0.001 0 0 255
0.0255037 -0.0428971 -0.001 0 0 255
-0.0162841 0.0223472 -0.001 0 0 255
-0.0230083 0.0424559 -0.001 0 0 255
0.0296929 0.0140889 -0.001 0 0 255
-0.00975881 -0.0279659 -0.001 0 0 255
0.0268793 0.00440669 -0.001 0 0 255
-0.00607204 -0.0148239 -0.001 0 0 255
0.0155144 0.0348289 -0.001 0 0 255
0.0212873 0.00690418 -0.001 0 0 255
0.0126016 0.0166252 -0.001 0 0 255
-0.0246045 0.0370232 -0.001 0 0 255
0.0193129 0.0144809 -0.001 0 0 255
0.0222637 0.0134976 -0.001 0 0 255
-0.0157491 -0.00763459 -0.001 0 0 255
0.000150903 -0.0213446 -0.001 0 0 255
-0.0237759 -0.0278259 -0.001 0 0 255
0.00915329 0.00253953 -0.001 0 0 255
0.00830421 -0.0273739 -0.001 0 0 255
-0.0223426 -0.0434093 -0.001 0 0 255
-0.0125637 -0.029301 -0.001 0 0 255
0.00151719 0.0103644 -0.001 0 0 255
-0.00614865 -0.033963 -0.001 0 0 255
0.0156476 0.00345894 -0.001 0 0 255
0.0172125 -0.0276813 -0.001 0 0 255
-0.0185721 0.0210984 -0.001 0 0 255
0.0206799 0.0220381 -0.001 0 0 255
0.00401468 0.0219491 -0.001 0 0 255
0.027312 -0.00785628 -0.001 0 0 255
0.0141436 0.0129316 -0.001 0 0 255
0.0186788 0.0189036 -0.001 0 0 255
-0.0138933 0.0426373 -0.001 0 0 255
-0.00893504 -0.0312812 -0.001 0 0 255
-0.00973765 0.0135635 -0.001 0 0 255
-0.010012 0.0428709 -0.001 0 0 255
-0.00142902 -0.0261978 -0.001 0 0 255
-0.0248501 -0.0304652 -0.001 0 0 255
0.0104439 -0.00775933 -0.001 0 0 255
0.0170353 0.0137921 -0.001 0 0 255
0.00527485 -0.0372668 -0.001 0 0 255
0.0281333 0.000441119 -0.001 0 0 255
0.00161124 0.0155316 -0.001 0 0 255
-0.0293214 -0.000520126 -0.001 0 0 255
0.0250921 0.0406654 -0.001 0 0 255
0.0251762 0.00388247 -0.001 0 0 255
-0.000570164 -0.0122291 -0.001 0 0 255
-0.0249125 -0.00235222 -0.001 0 0 255
0.00912594 -0.0139374 -0.001 0 0 255
-0.0181799 -0.0313424 -0.001 0 0 255
-0.0138434 -0.00488534 -0.001 0 0 255
0.00440398 0.00827984 -0.001 0 0 255
-0.0146255 -0.00564949 -0.001 0 0 255
-0.0216078 0.0223855 -0.001 0 0 255
0.0218699 -0.0415913 -0.001 0 0 255
0.0138426 0.00331497 -0.001 0 0 255
-0.00467204 0.0404133 -0.001 0 0 255
0.00670367 0.0122682 -0.001 0 0 255
-0.0256485 0.0345016 -0.001 0 0 255
-0.0210102 -0.00144199 -0.001 0 0 255
-0.0209544 0.0357125 -0.001 0 0 255
0.0280909 0.040097 -0.001 0 0 255
0.0287575 -0.0306848 -0.001 0 0 255
0.0150997 0.0327153 -0.001 0 0 255
-0.00901812 0.0319394 -0.001 0 0 255
-0.0201228 0.01334 -0.001 0 0 255
-0.0197341 -0.0146082 -0.001 0 0 255
0.00355873 -0.00661267 -0.001 0 0 255
-0.0058632 -0.00100479 -0.001 0 0 255
-0.029395 -0.0176759 -0.001 0 0 255
-0.00348928 -0.0199786 -0.001 0 0 255
0.028128 0.0280955 -0.001 0 0 255
-0.0189958 -0.0394214 -0.001 0 0 255
0.0276541 0.0110733 -0.001 0 0 255
-0.00541609 -0.0189213 -0.001 0 0 255
-0.0031724 -0.00951605 -0.001 0 0 255
-0.0198855 -0.00245985 -0.001 0 0 255
0.00309284 -0.0286628 -0.001 0 0 255
-0.029043 0.0141105 -0.001 0 0 255
0.00383416 0.0133966 -0.001 0 0 255
-0.0162288 0.0110703 -0.001 0 0 255
0.0241029 0.0393755 -0.001 0 0 255
-0.00556588 0.028793 -0.001 0 0 255
0.0169428 -0.0277243 -0.001 0 0 255
0.0278546 -0.0388345 -0.001 0 0 255
-0.014265 -0.00412056 -0.001 0 0 255
0.0247515 0.011013 -0.001 0 0 255
-0.0199249 -0.0371627 -0.001 0 0 255
-0.00293524 -0.00410813 -0.001 0 0 255
0.0294447 -0.0350294 -0.001 0 0 255
-0.00539986 0.0400203 -0.001 0 0 255
0.0137634 -0.0439237 -0.001 0 0 255
-0.0130375 0.00575428 -0.001 0 0 255
0.00382289 0.0229351 -0.001 0 0 255
-0.0202376 -0.00155975 -0.001 0 0 255
0.0130613 0.0194191 -0.001 0 0 255
-0.013148 -0.0220765 -0.001 0 0 255
0.023357 -0.0305443 -0.001 0 0 255
0.00609548 -0.00174436 -0.001 0 0 255
0.00852343 0.00555497 -0.001 0 0 255
-0.0211426 -0.0215555 -0.001 0 0 255
-0.0136942 -0.00491295 -0.001 0 0 255
0.0258501 -0.0314117 -0.001 0 0 255
-0.0226435 0.0434128 -0.001 0 0 255
-0.00443894 0.0101288 -0.001 0 0 255
0.0135011 -0.0299738 -0.001 0 0 255
0.0206178 0.017719 -0.001 0 0 255
-0.0235465 -0.0443546 -0.001 0 0 255
0.00255353 -0.000267757 -0.001 0 0 255
-0.0253978 -0.00522783 -0.001 0 0 255
-0.0138768 -0.013747 -0.001 0 0 255
0.0215237 0.0165956 -0.001 0 0 255
0.00637616 0.026342 -0.001 0 0 255
0.00956903 -0.0281998 -0.001 0 0 255
-0.0282857 -0.00301614 -0.001 0 0 255
-0.0124904 0.00875707 -0.001 0 0 255
0.0264894 0.0269945 -0.001 0 0 255
-0.0156388 -0.0175637 -0.001 0 0 255
-0.0203056 -0.0179648 -0.001 0 0 255
0.025921 -0.00888504 -0.001 0 0 255
0.00802335 0.0273154 -0.001 0 0 255
-0.0073183 -0.0231211 -0.001 0 0 255
-0.00653022 0.0289011 -0.001 0 0 255
0.0208211 -0.0370796 -0.001 0 0 255
-0.0282814 0.0297271 -0.001 0 0 255
-0.0139927 0.0234231 -0.001 0 0 255
0.005262 -0.000836677 -0.001 0 0 255
0.0032086 -0.0376549 -0.001 0 0 255
-0.0235619 0.00903917 -0.001 0 0 255
-0.0222193 0.010835 -0.001 0 0 255
0.0228939 -0.0278247 -0.001 0 0 255
-0.00178019 -0.0286018 -0.001 0 0 255
-0.00969948 0.0214948 -0.001 0 0 255
0.0064384 -0.0287805 -0.001 0 0 255
-0.00604269 0.0364467 -0.001 0 0 255
0.0187108 -0.0399091 -0.001 0 0 255
-0.0258062 0.0193289 -0.001 0 0 255
0.0200827 -0.0244513 -0.001 0 0 255
-0.0273458 0.00931406 -0.001 0 0 255
0.0051802 -0.0384831 -0.001 0 0 255
-0.0183797 0.0221727 -0.001 0 0 255
-0.028994 0.0357646 -0.001 0 0 255
0.0220432 0.0195819 -0.001 0 0 255
-0.017652 0.0123337 -0.001 0 0 255
0.0163235 -0.00974723 -0.001 0 0 255
0.0179486 -0.0232913 -0.001 0 0 255
0.012707 -0.00811929 -0.001 0 0 255
0.0101269 -0.0246761 -0.001 0 0 255
-0.00121131 -0.0356782 -0.001 0 0 255
0.0138343 0.0122663 -0.001 0 0 255
0.0011699 0.0223882 -0.001 0 0 255
-0.0024743 -0.0298564 -0.001 0 0 255
0.0295502 0.0164656 -0.001 0 0 255
-0.0142313 -0.0336855 -0.001 0 0 255
0.0260678 -0.0232724 -0.001 0 0 255
0.0207231 -0.0201805 -0.001 0 0 255
0.0170729 0.00905078 -0.001 0 0 255
-0.0162831 0.0144278 -0.001 0 0 255
0.0229523 -0.0187831 -0.001 0 0 255
-0.0100867 0.0209255 -0.001 0 0 255
-0.0116081 0.0201966 -0.001 0 0 255
-0.0229564 -0.0121298 -0.001 0 0 255
0.0187119 -0.0129076 -0.001 0 0 255
-0.00850586 0.00793643 -0.001 0 0 255
0.000988116 -0.00429407 -0.001 0 0 255
-0.0271653 -0.0428761 -0.001 0 0 255
-0.0139097 -0.027285 -0.001 0 0 255
0.0288473 -0.0230631 -0.001 0 0 255
-0.00634668 -0.0345392 -0.001 0 0 255
-0.024445 -0.0317146 -0.001 0 0 255
-0.00219936 0.0205743 -0.001 0 0 255
0.0219854 0.0224357 -0.001 0 0 255
0.0154297 0.00527379 -0.001 0 0 255
-0.0130628 -0.0372619 -0.001 0 0 255
-0.0125722 0.0224314 -0.001 0 0 255
-0.0217385 0.0234191 -0.001 0 0 255
0.0198642 0.0234617 -0.001 0 0 255
0.00355107 -0.00585442 -0.001 0 0 255
-0.00593344 -0.0127587 -0.001 0 0 255
0.0156319 -0.0124441 -0.001 0 0 255
-0.0286424 0.0449181 -0.001 0 0 255
0.0103964 -0.0169147 -0.001 0 0 255
-0.00442793 -0.0398734 -0.001 0 0 255
-0.017799 0.00631877 -0.001 0 0 255
-0.00806993 -0.0374991 -0.001 0 0 255
-0.0271309 0.00817559 -0.001 0 0 255
-0.00727741 0.022715 -0.001 0 0 255
-0.0297056 0.0284953 -0.001 0 0 255
-0.0282379 -0.0275462 -0.001 0 0 255
-0.0106425 -0.00691151 -0.001 0 0 255
0.00722031 0.0395735 -0.001 0 0 255
0.00487009 -0.0231016 -0.001 0 0 255
0.0255957 0.0142721 -0.001 0 0 255
0.00613073 0.0276897 -0.001 0 0 255
-0.0236666 0.00213003 -0.001 0 0 255
-0.0047783 0.00247147 -0.001 0 0 255
-0.0178523 0.0447271 -0.001 0 0 255
0.0299029 -0.0275691 -0.001 0 0 255
-0.0208268 -0.0282417 -0.001 0 0 255
-0.0249023 -0.0146542 -0.001 0 0 255
-0.00856923 -0.04459 -0.001 0 0 255
0.0180997 -0.0282544 -0.001 0 0 255
-0.00300216 0.014886 -0.001 0 0 255
0.0168796 -0.0123649 -0.001 0 0 255
-0.020594 -0.00335338 -0.001 0 0 255
0.0190125 -0.040162 -0.001 0 0 255
-0.0258349 0.0322051 -0.001 0 0 255
-0.0255161 0.0225848 -0.001 0 0 255
0.0267332 0.0263478 -0.001 0 0 255
0.00104377 0.0158724 -0.001 0 0 255
0.0113185 -0.0368928 -0.001 0 0 255
0.0176757 0.0320226 -0.001 0 0 255
0.0183785 -0.0212717 -0.001 0 0 255
-0.0151455 0.028201 -0.001 0 0 255
-0.00127618 0.032812 -0.001 0 0 255
-0.0117808 -0.0174001 -0.001 0 0 255
0.0232705 0.00487504 -0.001 0 0 255
0.01313 -0.032518 -0.001 0 0 255
-0.00203033 -0.0272921 -0.001 0 0 255
-0.0194317 -0.00338209 -0.001 0 0 255
0.0289835 -0.010561 -0.001 0 0 255
-0.0157134 0.0388674 -0.001 0 0 255
-0.0139654 0.0398129 -0.001 0 0 255
0.0134685 0.0303925 -0.001 0 0 255
-0.0259283 -0.0415613 -0.001 0 0 255
0.0237132 -0.0305916 -0.001 0 0 255
-0.00757393 -0.00235731 -0.001 0 0 255
0.0171441 0.0158514 -0.001 0 0 255
-0.0232982 0.03031 -0.001 0 0 255
-0.0212275 0.0118522 -0.001 0 0 255
-0.0142998 -0.00905821 -0.001 0 0 255
0.00266587 -0.00452292 -0.001 0 0 255
0.0216947 0.000203537 -0.001 0 0 255
-0.0166483 0.0393846 -0.001 0 0 255
0.00734811 -0.00423199 -0.001 0 0 255
-0.0251589 0.0427144 -0.001 0 0 255
0.0104854 0.0257849 -0.001 0 0 255
-0.023691 0.00957569 -0.001 0 0 255
-0.0177381 -0.00603307 -0.001 0 0 255
-0.00910727 -0.0219067 -0.001 0 0 255
0.00917995 -0.00797284 -0.001 0 0 255
0.0292268 -0.0358143 -0.001 0 0 255
0.0119017 -0.0258223 -0.001 0 0 255
-0.00229456 0.0100865 -0.001 0 0 255
0.027644 0.0173035 -0.001 0 0 255
-0.0151672 0.0117635 -0.001 0 0 255
-0.00980902 0.0363206 -0.001 0 0 255
-0.0173808 -0.0335999 -0.001 0 0 255
0.00408455 -0.00414165 -0.001 0 0 255
-0.0185642 -0.0143668 -0.001 0 0 255
-0.0260494 0.0153032 -0.001 0 0 255
0.0197244 -0.0297871 -0.001 0 0 255
-0.0173518 0.0196223 -0.001 0 0 255
0.0131377 -0.0446668 -0.001 0 0 255
-0.0209876 0.0363009 -0.001 0 0 255
0.00430766 -0.0249039 -0.001 0 0 255
-0.0151463 -0.0433017 -0.001 0 0 255
-0.00374003 0.0283489 -0.001 0 0 255
-0.00544379 -0.0365231 -0.001 0 0 255
-0.00472939 0.0235707 -0.001 0 0 255
-0.0285666 0.0105764 -0.001 0 0 255
-0.028493 -0.0288533 -0.001 0 0 255
0.0242387 0.00732218 -0.001 0 0 255
-0.00595034 -0.0292032 -0.001 0 0 255
-0.0173364 0.0275454 -0.001 0 0 255
0.0139106 0.0359473 -0.001 0 0 255
-0.0168736 0.0212076 -0.001 0 0 255
-0.0199998 -0.00861023 -0.001 0 0 255
-0.0276836 -0.0188548 -0.001 0 0 255
0.0233928 -0.0364138 -0.001 0 0 255
-0.00199623 0.00756473 -0.001 0 0 255
-0.0020161 -0.0378215 -0.001 0 0 255
-0.0237549 0.0446633 -0.001 0 0 255
-0.0239144 -0.0274889 -0.001 0 0 255
-0.0255216 0.0035759 -0.001 0 0 255
0.0199285 -0.00865603 -0.001 0 0 255
-0.00440198 0.0375578 -0.001 0 0 255
-0.025327 -0.0157083 -0.001 0 0 255
-0.0224193 0.0236043 -0.001 0 0 255
0.00948518 0.0100061 -0.001 0 0 255
-0.0102821 0.0347338 -0.001 0 0 255
0.017251 -0.0293963 -0.001 0 0 255
0.00369429 0.0237831 -0.001 0 0 255
0.027039 -0.0146138 0.001 0 0 255
0.0153953 -0.0149352 0.001 0 0 255
-0.0285058 -0.0191075 0.001 0 0 255
-0.0165053 -0.021573 0.001 0 0 255
0.00727666 0.0398525 0.001 0 0 255
0.00555472 0.013453 0.001 0 0 255
0.0250682 0.00958671 0.001 0 0 255
-0.00453444 -0.0213768 0.001 0 0 255
0.00466229 0.0245514 0.001 0 0 255
-0.026397 -0.0231481 0.001 0 0 255
-0.0237556 -0.041035 0.001 0 0 255
0.016434 -0.0370665 0.001 0 0 255
0.0175278 0.00165739 0.001 0 0 255
-0.0115525 -0.0214099 0.001 0 0 255
-0.0235453 0.0371285 0.001 0 0 255
0.0150719 -0.0298015 0.001 0 0 255
0.0261896 0.0293324 0.001 0 0 255
-0.0004676 -0.0259256 0.001 0 0 255
0.00324559 -0.0390159 0.001 0 0 255
-0.00874923 0.0176193 0.001 0 0 255
-0.00499098 -0.042668 0.001 0 0 255
0.0204362 0.0140889 0.001 0 0 255
0.0113125 -0.000118407 0.001 0 0 255
0.00331713 0.00776467 0.001 0 0 255
0.0245592 -0.0158106 0.001 0 0 255
-0.00039156 0.0157482 0.001 0 0 255
0.00724135 0.0243443 0.001 0 0 255
-0.0127224 0.0231132 0.001 0 0 255
0.0240927 0.0117099 0.001 0 0 255
0.0203727 -0.0034847 0.001 0 0 255
-0.00719102 -0.00997346 0.001 0 0 255
-0.0245077 -0.0297832 0.001 0 0 255
-0.0097678 0.0446078 0.001 0 0 255
-0.0148221 -0.00615787 0.001 0 0 255
-0.026119 0.0249352 0.001 0 0 255
-0.0243005 -0.0291009 0.001 0 0 255
0.0010117 0.0158224 0.001 0 0 255
-0.00593323 0.0396302 0.001 0 0 255
0.0291362 -0.0368131 0.001 0 0 255
-0.00777677 0.0192572 0.001 0 0 255
-0.020664 -0.0445558 0.001 0 0 255
-0.0200897 0.0235855 0.001 0 0 255
0.0179814 0.0409866 0.001 0 0 255
0.0226883 0.00449025 0.001 0 0 255
-0.0132818 -0.0318022 0.001 0 0 255
0.00191589 -0.0317613 0.001 0 0 255
0.025961 0.0379917 0.001 0 0 255
0.0167722 -0.0329297 0.001 0 0 255
0.00375401 -0.0387741 0.001 0 0 255
0.024174 -0.00916552 0.001 0 0 255
0.0171485 0.0360998 0.001 0 0 255
0.00944095 0.0421785 0.001 0 0 255
-0.0217593 -0.0207752 0.001 0 0 255
-0.0140685 -0.0318158 0.001 0 0 255
-0.0204805 -0.032054 0.001 0 0 255
0.00488378 -0.0138197 0.001 0 0 255
-0.0119469 -0.0147085 0.001 0 0 255
-0.00559699 -0.0336877 0.001 0 0 255
-0.0110799 -0.0249984 0.001 0 0 255
-0.0245096 0.0233711 0.001 0 0 255
-0.0209624 -0.0357404 0.001 0 0 255
0.0207563 -0.00454931 0.001 0 0 255
-0.0118513 0.00204753 0.001 0 0 255
-0.00522577 0.0162737 0.001 0 0 255
-0.0116192 0.0062428 0.001 0 0 255
-0.0207503 -0.0361998 0.001 0 0 255
0.0174838 0.00909757 0.001 0 0 255
0.0261666 -0.00502875 0.001 0 0 255
-0.012734 0.000594643 0.001 0 0 255
-0.0293467 0.00932952 0.001 0 0 255
-0.0123827 0.0319301 0.001 0 0 255
-0.00278368 -0.0253733 0.001 0 0 255
0.0144468 0.0236434 0.001 0 0 255
0.0219906 0.0330025 0.001 0 0 255
0.0197947 -0.0325945 0.001 0 0 255
-0.0230746 0.00403012 0.001 0 0 255
-0.00331564 0.0114049 0.001 0 0 255
0.0291079 -0.0228987 0.001 0 0 255
-0.00801033 -0.0449332 0.001 0 0 255
-0.00311339 0.0434364 0.001 0 0 255
0.024662 -0.00847528 0.001 0 0 255
0.0287658 0.0155249 0.001 0 0 255
0.00301679 0.0214897 0.001 0 0 255
0.00345188 -0.0332883 0.001 0 0 255
0.0204397 0.00839186 0.001 0 0 255
-0.0132345 -0.0160156 0.001 0 0 255
0.00184862 0.0411332 0.001 0 0 255
-0.00262857 0.017062 0.001 0 0 255
0.00470128 -0.0197157 0.001 0 0 255
0.0100804 -0.0101873 0.001 0 0 255
0.0295864 0.0338994 0.001 0 0 255
-0.0164098 -0.0246494 0.001 0 0 255
-0.00768245 -0.0293736 0.001 0 0 255
0.00480521 -0.028626 0.001 0 0 255
0.0280615 -0.0234659 0.001 0 0 255
0.0295485 0.0154825 0.001 0 0 255
-0.0129234 -0.0191398 0.001 0 0 255
-0.0115993 0.019551 0.001 0 0 255
0.000818516 -0.00804772 0.001 0 0 255
-0.0187988 -0.0198017 0.001 0 0 255
-0.0172893 -0.0386133 0.001 0 0 255
0.0134587 -0.0243994 0.001 0 0 255
-0.00544539 -0.0345832 0.001 0 0 255
0.00342782 0.00513179 0.001 0 0 255
0.0276127 -0.0201908 0.001 0 0 255
0.0217464 -0.0384076 0.001 0 0 255
-0.0222988 -0.0253858 0.001 0 0 255
-0.000206655 -0.032808 0.001 0 0 255
-0.00511146 0.0447242 0.001 0 0 255
-0.00496425 -0.0438082 0.001 0 0 255
-0.00815862 -0.0370957 0.001 0 0 255
-0.0205828 -0.0434848 0.001 0 0 255
-0.00262999 -0.0399042 0.001 0 0 255
0.0241576 -0.0310672 0.001 0 0 255
0.0233539 0.0333944 0.001 0 0 255
-0.00928191 -0.0346047 0.001 0 0 255
0.00406615 0.0375606 0.001 0 0 255
0.0117718 0.00891323 0.001 0 0 255
-0.0131882 -0.0100087 0.001 0 0 255
0.00498999 0.039128 0.001 0 0 255
-0.0192709 0.027049 0.001 0 0 255
-0.00478824 0.0423235 0.001 0 0 255
-0.0137941 -0.00949884 0.001 0 0 255
-0.0152139 0.0158113 0.001 0 0 255
0.026576 0.0116007 0.001 0 0 255
-0.0167741 0.00449097 0.001 0 0 255
-0.0160721 -0.0164064 0.001 0 0 255
0.0165958 -0.0428489 0.001 0 0 255
-0.0241335 0.00407961 0.001 0 0 255
0.0179497 -0.0325183 0.001 0 0 255
0.00684968 -0.0384175 0.001 0 0 255
-0.0227491 -0.0376016 0.001 0 0 255
-0.0277074 0.0158667 0.001 0 0 255
-0.00661514 -0.0330631 0.001 0 0 255
-0.00141084 -0.0112098 0.001 0 0 255
0.0285876 0.0297855 0.001 0 0 255
0.0232424 0.00237412 0.001 0 0 255
-0.0235188 -0.0407647 0.001 0 0 255
-0.00780021 -0.0446666 0.001 0 0 255
0.00713761 0.0234314 0.001 0 0 255
-0.00705482 -0.00834643 0.001 0 0 255
0.0175469 -0.0391707 0.001 0 0 255
0.00769423 -0.0380089 0.001 0 0 255
-0.00335521 -0.0160476 0.001 0 0 255
0.0225707 -0.0103347 0.001 0 0 255
-0.0178159 -0.00328503 0.001 0 0 255
0.0243736 0.038139 0.001 0 0 255
0.0191001 -0.0198953 0.001 0 0 255
-0.00591033 0.0122773 0.001 0 0 255
-0.0100138 -0.0223445 0.001 0 0 255
-0.00283377 0.00386426 0.001 0 0 255
-0.0102094 0.035783 0.001 0 0 255
-0.011569 0.00187461 0.001 0 0 255
-0.0249799 0.0186633 0.001 0 0 255
0.0296215 0.013164 0.001 0 0 255
0.0272378 0.0166694 0.001 0 0 255
-0.011845 0.0423239 0.001 0 0 255
-0.0232474 0.0287649 0.001 0 0 255
0.0289534 0.0349157 0.001 0 0 255
0.0155787 0.012673 0.001 0 0 255
-0.0103132 -0.0425045 0.001 0 0 255
0.0202496 0.0334524 0.001 0 0 255
0.02894 -0.0132393 0.001 0 0 255
0.0146985 0.0165955 0.001 0 0 255
0.000783379 0.0395743 0.001 0 0 255
0.019414 -0.0408588 0.001 0 0 255
-0.0120958 -0.0244877 0.001 0 0 255
0.000942373 -0.0168423 0.001 0 0 255
0.00799781 -0.0030565 0.001 0 0 255
-0.0253152 0.0267384 0.001 0 0 255
-0.0144126 -0.0204339 0.001 0 0 255
0.0076912 0.0449283 0.001 0 0 255
0.0251298 0.0169414 0.001 0 0 255
0.00689539 -0.0108946 0.001 0 0 255
0.027416 -0.00890421 0.001 0 0 255
-0.018934 0.011449 0.001 0 0 255
-0.01757 0.0268442 0.001 0 0 255
3.98616e-05 0.0408291 0.001 0 0 255
0.00538992 0.00943453 0.001 0 0 255
0.0111176 -0.0305365 0.001 0 0 255
-0.00702708 -0.013069 0.001 0 0 255
0.0054494 -0.0115237 0.001 0 0 255
-0.00456324 0.0365168 0.001 0 0 255
-0.00631889 0.0294723 0.001 0 0 255
-0.0244493 -0.0048689 0.001 0 0 255
0.0129779 0.00287006 0.001 0 0 255
0.0260302 0.0284489 0.001 0 0 255
0.00125111 -0.0349844 0.001 0 0 255
-0.0184571 -0.00212582 0.001 0 0 255
0.0204428 0.00438388 0.001 0 0 255
-0.0191306 -0.0199355 0.001 0 0 255
-0.00653184 -0.0358398 0.001 0 0 255
-0.00296678 0.00360096 0.001 0 0 255
-0.0154012 -0.0157743 0.001 0 0 255
0.020012 -0.0261186 0.001 0 0 255
0.0179968 0.0280764 0.001 0 0 255
0.0171512 0.00553494 0.001 0 0 255
-0.00323185 -0.0177023 0.001 0 0 255
-0.0266758 0.0440494 0.001 0 0 255
-0.0165779 -0.00507127 0.001 0 0 255
0.0135906 0.0301459 0.001 0 0 255
-0.00636362 0.0315672 0.001 0 0 255
-0.0292856 -0.01961 0.001 0 0 255
0.0236304 -0.0232002 0.001 0 0 255
-0.01532 0.0234809 0.001 0 0 255
0.0246677 -0.00398649 0.001 0 0 255
0.026177 0.022925 0.001 0 0 255
-0.00993705 0.0172556 0.001 0 0 255
-0.0056629 -0.0168606 0.001 0 0 255
-0.00414299 -0.0342214 0.001 0 0 255
-0.00471041 0.00867818 0.001 0 0 255
0.00663678 -0.0353018 0.001 0 0 255
0.00740498 0.00364703 0.001 0 0 255
0.0184229 -0.0243896 0.001 0 0 255
-0.00253241 -0.0114122 0.001 0 0 255
-0.0212129 -0.000210471 0.001 0 0 255
0.00656896 0.0335697 0.001 0 0 255
0.0143579 0.0241447 0.001 0 0 255
-0.00758078 -0.020394 0.001 0 0 255
0.0136193 -0.0207159 0.001 0 0 255
-0.016796 0.0041591 0.001 0 0 255
-0.0255716 0.0135771 0.001 0 0 255
0.00170536 -0.0320095 0.001 0 0 255
-0.0006213 -0.01762 0.001 0 0 255
0.0274672 -0.0338954 0.001 0 0 255
-0.0190901 -0.0341776 0.001 0 0 255
-0.0149775 -0.0221698 0.001 0 0 255
-0.0183169 -0.0438646 0.001 0 0 255
-0.0187002 -0.0245651 0.001 0 0 255
-0.0295518 0.00721292 0.001 0 0 255
-0.00870559 -0.0378149 0.001 0 0 255
0.024713 -0.0249551 0.001 0 0 255
0.0160646 -0.0214905 0.001 0 0 255
-0.00185646 -0.0119833 0.001 0 0 255
-0.0144179 0.000277488 0.001 0 0 255
-0.00392981 0.0288503 0.001 0 0 255
-0.0285999 0.00134897 0.001 0 0 255
-0.0141336 0.0333988 0.001 0 0 255
0.00660379 0.0390102 0.001 0 0 255
0.0266068 -0.0358254 0.001 0 0 255
0.0268764 -0.0325266 0.001 0 0 255
-0.0075373 0.0322535 0.001 0 0 255
0.0152498 -0.0185847 0.001 0 0 255
-0.00696189 0.0215181 0.001 0 0 255
-0.0212518 -0.00206636 0.001 0 0 255
-0.0106356 -0.0364496 0.001 0 0 255
0.0106362 0.0207809 0.001 0 0 255
0.0197624 0.0157517 0.001 0 0 255
-0.0086908 0.0382648 0.001 0 0 255
-0.0141541 -0.0422444 0.001 0 0 255
0.0248449 0.0229814 0.001 0 0 255
0.0287324 -0.0150587 0.001 0 0 255
0.0249132 0.0338967 0.001 0 0 255
-0.024651 0.0342296 0.001 0 0 255
-0.0189293 0.0261237 0.001 0 0 255
0.00249075 0.0159155 0.001 0 0 255
0.0161284 0.0305168 0.001 0 0 255
0.0296675 0.00956297 0.001 0 0 255
0.00102619 0.00704227 0.001 0 0 255
0.0221951 0.0306792 0.001 0 0 255
-0.00834241 0.0306669 0.001 0 0 255
0.0185312 -0.00327587 0.001 0 0 255
-0.0225748 0.0196128 0.001 0 0 255
0.00643067 -0.0312844 0.001 0 0 255
0.021485 0.00925721 0.001 0 0 255
0.0286355 0.0417063 0.001 0 0 255
-0.00916233 -0.0323503 0.001 0 0 255
0.0211451 0.0197346 0.001 0 0 255
-0.0203691 -0.0121623 0.001 0 0 255
0.0293064 -0.0428391 0.001 0 0 255
0.0264235 -0.00189003 0.001 0 0 255
0.0289458 0.0363062 0.001 0 0 255
-0.0165731 -0.0192442 0.001 0 0 255
-0.0222323 0.0253972 0.001 0 0 255
-0.00437214 0.0193914 0.001 0 0 255
-0.00967515 -0.0425389 0.001 0 0 255
-0.00954255 7.75157e-05 0.001 0 0 255
0.00865318 -0.00950901 0.001 0 0 255
-0.0137735 -0.0306596 0.001 0 0 255
-0.0208272 0.0266622 0.001 0 0 255
0.00930116 0.00806152 0.001 0 0 255
0.0274474 -0.0419269 0.001 0 0 255
-0.0103832 0.00690059 0.001 0 0 255
0.023894 -0.0342666 0.001 0 0 255
-0.0277775 0.000829028 0.001 0 0 255
0.00107194 -0.00572631 0.001 0 0 255
0.00539463 -0.0207515 0.001 0 0 255
0.000288786 0.02 0.001 0 0 255
0.00562471 0.0369242 0.001 0 0 255
0.00744379 -0.0292707 0.001 0 0 255
-0.0245196 0.031496 0.001 0 0 255
-0.0218629 0.0257302 0.001 0 0 255
0.012992 0.0359916 0.001 0 0 255
0.0126087 0.0298832 0.001 0 0 255
-0.00794492 0.00943479 0.001 0 0 255
0.00451825 -0.0295283 0.001 0 0 255
-0.0115197 0.0118138 0.001 0 0 255
0.00897923 -0.00442905 0.001 0 0 255
0.00225773 0.0273673 0.001 0 0 255
0.00742632 -0.0416859 0.001 0 0 255
0.00921804 -0.0396496 0.001 0 0 255
-0.00679829 -0.0161378 0.001 0 0 255
0.0138771 -0.00411099 0.001 0 0 255
0.0169683 -0.0290169 0.001 0 0 255
-0.0030307 -0.0162726 0.001 0 0 255
0.0186304 0.033419 0.001 0 0 255
-0.00220526 -0.0146902 0.001 0 0 255
0.0200653 -0.000601618 0.001 0 0 255
0.0229097 0.0107083 0.001 0 0 255
-0.0275731 -0.0230022 0.001 0 0 255
-0.0214699 0.0173926 0.001 0 0 255
0.0161644 0.0287984 0.001 0 0 255
-0.0126319 -0.0308506 0.001 0 0 255
-0.0090077 -0.0111999 0.001 0 0 255
-0.0217068 0.0297595 0.001 0 0 255
-0.0132462 -0.0100677 0.001 0 0 255
0.0235705 0.0353434 0.001 0 0 255
0.000844549 0.0139604 0.001 0 0 255
0.0164914 -0.0242799 0.001 0 0 255
-0.0118006 0.00870676 0.001 0 0 255
0.0179726 0.0214697 0.001 0 0 255
-0.000406546 0.00976039 0.001 0 0 255
0.0248382 -0.0405835 0.001 0 0 255
0.0136349 -0.0124905 0.001 0 0 255
0.0158097 0.0183795 0.001 0 0 255
-0.000165394 -0.0448657 0.001 0 0 255
0.0127819 0.000447371 0.001 0 0 255
-0.0235329 -0.00529289 0.001 0 0 255
-0.00923586 0.0220622 0.001 0 0 255
-0.018184 0.0154028 0.001 0 0 255
0.0277296 -0.022801 0.001 0 0 255
0.0173073 0.00808233 0.001 0 0 255
0.0161583 -0.0355991 0.001 0 0 255
0.00601593 -0.0386671 0.001 0 0 255
0.00519305 -0.0224702 0.001 0 0 255
0.00824448 0.00945872 0.001 0 0 255
0.0239126 -0.0439969 0.001 0 0 255
-0.0137491 -0.000557455 0.001 0 0 255
-0.0270827 -0.035587 0.001 0 0 255
-0.00795026 0.0313611 0.001 0 0 255
-0.00476239 -0.0185599 0.001 0 0 255
0.0299144 0.000300651 0.001 0 0 255
-0.0263325 0.0127538 0.001 0 0 255
-0.027224 0.039747 0.001 0 0 255
0.0202475 -0.0424481 0.001 0 0 255
-0.00600385 -0.0187217 0.001 0 0 255
-0.0129644 0.0162172 0.001 0 0 255
-0.012098 0.0101949 0.001 0 0 255
-0.0110043 0.0269935 0.001 0 0 255
0.0086352 -0.0389612 0.001 0 0 255
0.00245362 -0.0431912 0.001 0 0 255
-0.0179943 -0.00520357 0.001 0 0 255
0.0017302 -0.014135 0.001 0 0 255
-0.00106904 -0.0291084 0.001 0 0 255
0.00279552 0.0354652 0.001 0 0 255
-0.0118662 0.0269597 0.001 0 0 255
-0.00289886 0.00936421 0.001 0 0 255
-0.00719154 -0.0310179 0.001 0 0 255
0.0160401 -0.00600195 0.001 0 0 255
-0.0155613 0.00893951 0.001 0 0 255
0.0218185 -0.0373113 0.001 0 0 255
0.0232557 0.0199475 0.001 0 0 255
-0.0205191 0.0373623 0.001 0 0 255
-0.00729047 0.0302227 0.001 0 0 255
-0.0275683 0.00872484 0.001 0 0 255
0.000639876 0.0214824 0.001 0 0 255
0.00784259 -0.0128956 0.001 0 0 255
-0.014597 0.0375562 0.001 0 0 255
0.0281898 -0.0261211 0.001 0 0 255
-0.0212926 0.0219261 0.001 0 0 255
-0.0162239 0.00680581 0.001 0 0 255
-0.0283703 0.0368715 0.001 0 0 255
0.022086 0.00886795 0.001 0 0 255
-0.0232645 0.0413117 0.001 0 0 255
0.026692 0.0171536 0.001 0 0 255
-0.0104355 -0.00902729 0.001 0 0 255
0.0277365 0.0150615 0.001 0 0 255
0.00952892 0.00865724 0.001 0 0 255
0.0221777 0.0157563 0.001 0 0 255
-0.0140604 0.0075501 0.001 0 0 255
0.00873528 -0.0421377 0.001 0 0 255
-0.0120617 0.0379046 0.001 0 0 255
-0.0228315 0.0212388 0.001 0 0 255
-0.00509639 0.0370962 0.001 0 0 255
0.00271948 -0.0257448 0.001 0 0 255
-0.0013418 0.0446348 0.001 0 0 255
-0.00970966 -0.0182704 0.001 0 0 255
0.0164768 -0.0340387 0.001 0 0 255
0.0137276 -0.0239618 0.001 0 0 255
-0.0208154 0.029315 0.001 0 0 255
0.0108696 0.040727 0.001 0 0 255
-0.0158996 -0.00514353 0.001 0 0 255
-0.012931 0.00791429 0.001 0 0 255
0.0101641 0.0354379 0.001 0 0 255
-0.00737377 -0.0270084 0.001 0 0 255
-0.0053904 -0.0268321 0.001 0 0 255
0.00593366 -0.0394611 0.001 0 0 255
0.0204667 -0.0329921 0.001 0 0 255
0.00702555 -0.0299739 0.001 0 0 255
0.00963938 -0.0158779 0.001 0 0 255
-0.0065843 -0.0439576 0.001 0 0 255
-0.028476 -0.026748 0.001 0 0 255
0.000896562 -0.0381213 0.001 0 0 255
-0.0154767 0.038577 0.001 0 0 255
-0.0091433 0.0381725 0.001 0 0 255
0.0177171 0.00549922 0.001 0 0 255
0.00784171 -0.0293253 0.001 0 0 255
0.00633945 -0.0360745 0.001 0 0 255
0.00938272 -0.0327363 0.001 0 0 255
0.0070658 0.0109316 0.001 0 0 255
-0.0149589 -0.0440121 0.001 0 0 255
-0.0190561 -0.0383506 0.001 0 0 255
0.0201755 0.0400264 0.001 0 0 255
0.000430749 0.00937518 0.001 0 0 255
-0.0014897 0.033664 0.001 0 0 255
-0.00297472 -0.0202998 0.001 0 0 255
-0.0175165 -0.0137717 0.001 0 0 255
0.00193312 -0.015063 0.001 0 0 255
-0.0151356 0.0228843 0.001 0 0 255
0.0117584 0.0139251 0.001 0 0 255
-0.0141922 0.0280999 0.001 0 0 255
0.0193322 0.0415571 0.001 0 0 255
0.00281988 -0.0328693 0.001 0 0 255
-0.0155416 0.00552921 0.001 0 0 255
-0.00999293 0.0181252 0.001 0 0 255
0.0228287 -0.0143063 0.001 0 0 255
-0.0263233 0.0315283 0.001 0 0 255
-0.0104273 -0.0370573 0.001 0 0 255
-0.0272501 -0.0157944 0.001 0 0 255
0.0123413 -0.00828546 0.001 0 0 255
0.0225591 -0.0170294 0.001 0 0 255
-0.0219287 0.00987251 0.001 0 0 255
0.0080911 -0.012584 0.001 0 0 255
-0.0123443 0.0205027 0.001 0 0 255
0.00815545 -0.0448424 0.001 0 0 255
-0.012334 0.0321258 0.001 0 0 255
0.0141088 -0.0222446 0.001 0 0 255
0.000645488 0.0174676 0.001 0 0 255
-0.0277625 -0.0229482 0.001 0 0 255
0.00684424 0.0339427 0.001 0 0 255
-0.0155906 0.00607386 0.001 0 0 255
0.0098944 -0.00119871 0.001 0 0 255
-0.00750995 0.0177862 0.001 0 0 255
-0.0205768 -0.0419936 0.001 0 0 255
0.0278222 -0.0448058 0.001 0 0 255
0.00387481 0.00782974 0.001 0 0 255
0.0021515 -0.00917784 0.001 0 0 255
0.0250124 -0.029606 0.001 0 0 255
0.0129188 -0.0249854 0.001 0 0 255
-0.0296525 -0.00729453 0.001 0 0 255
-0.00951554 -0.0395558 0.001 0 0 255
-0.0148099 -0.00526026 0.001 0 0 255
0.0278548 0.0297626 0.001 0 0 255
-0.0247816 -0.0271124 0.001 0 0 255
0.00612176 0.0103562 0.001 0 0 255
0.00742444 0.0125034 0.001 0 0 255
-0.0286174 0.00233582 0.001 0 0 255
-0.0069038 -0.0218584 0.001 0 0 255
0.0164762 -0.0366815 0.001 0 0 255
0.0192094 0.00509981 0.001 0 0 255
-0.0170429 0.0174105 0.001 0 0 255
0.0295881 -0.0380582 0.001 0 0 255
-0.0298175 -0.0164106 0.001 0 0 255
-0.0249907 0.0044427 0.001 0 0 255
-0.00512656 0.0377302 0.001 0 0 255
0.0178737 -0.000109247 0.001 0 0 255
-0.0291905 0.00129627 0.001 0 0 255
-0.0016826 0.0329061 0.001 0 0 255
0.00353135 -0.0344618 0.001 0 0 255
0.00555748 0.0408897 0.001 0 0 255
-0.0200329 0.019341 0.001 0 0 255
0.01122 -0.0390076 0.001 0 0 255
0.00410669 -0.0298756 0.001 0 0 255
0.00384355 0.0117652 0.001 0 0 255
-0.0161486 -0.0128021 0.001 0 0 255
0.0223047 0.0400589 0.001 0 0 255
0.0113154 0.0203663 0.001 0 0 255
-0.0284043 -0.00782425 0.001 0 0 255
0.0276363 -0.0205786 0.001 0 0 255
-0.0236303 -0.0158761 0.001 0 0 255
0.018574 -0.0160029 0.001 0 0 255
-0.0283899 -0.0297897 0.001 0 0 255
-0.0186034 0.000646795 0.001 0 0 255
0.00783612 -0.0106558 0.001 0 0 255
-0.0129129 -0.0419998 0.001 0 0 255
-0.00168885 0.0284823 0.001 0 0 255
0.0284011 0.0264049 0.001 0 0 255
0.00876957 -0.00447718 0.001 0 0 255
0.00676023 0.000321003 0.001 0 0 255
0.00171293 0.033294 0.001 0 0 255
0.0205352 0.0238562 0.001 0 0 255
-0.00463219 -0.0117522 0.001 0 0 255
-0.0192836 -0.000870964 0.001 0 0 255
0.0276325 0.0222994 0.001 0 0 255
-0.00697446 -0.0126091 0.001 0 0 255
0.0112922 -0.0173206 0.001 0 0 255
-0.0166605 -0.000533532 0.001 0 0 255
0.0142963 0.0108505 0.001 0 0 255
-0.00412194 -0.0355472 0.001 0 0 255
0.00396399 -0.0249189 0.001 0 0 255
-0.0196197 0.00290714 0.001 0 0 255
-0.0156487 0.026273 0.001 0 0 255
0.00654595 -0.00518562 0.001 0 0 255
-0.0262377 -0.0115349 0.001 0 0 255
0.00520478 0.0377534 0.001 0 0 255
-0.0174975 0.00244174 0.001 0 0 255
0.0217383 0.0198137 0.001 0 0 255
0.0299499 0.00549348 0.001 0 0 255
0.029561 0.0379919 0.001 0 0 255
-0.0174837 0.0352778 0.001 0 0 255
0.00312328 -0.0127775 0.001 0 0 255
-0.0169729 -0.0235009 0.001 0 0 255
-0.00174531 0.00991167 0.001 0 0 255
-0.0245754 0.0190736 0.001 0 0 255
0.0262073 -0.00593828 0.001 0 0 255
0.00332212 -0.0439748 0.001 0 0 255
0.0278561 -0.00448366 0.001 0 0 255
0.0159874 0.0325069 0.001 0 0 255
-0.00124669 0.0311661 0.001 0 0 255
0.0166149 0.0448187 0.001 0 0 255
0.028926 -0.028383 0.001 0 0 255
0.0140229 0.00691451 0.001 0 0 255
0.0262632 -0.034579 0.001 0 0 255
-0.00985868 -0.000508342 0.001 0 0 255
-0.0250662 -0.00452821 0.001 0 0 255
0.0120683 0.0166621 0.001 0 0 255
-0.0148872 -0.0115965 0.001 0 0 255
-0.0126466 -0.00179126 0.001 0 0 255
-0.0166227 -0.000416377 0.001 0 0 255
0.00930596 -0.0086916 0.001 0 0 255
0.0296732 -0.0294027 0.001 0 0 255
0.00130345 0.0165104 0.001 0 0 255
0.0119398 -0.0263102 0.001 0 0 255
0.0283406 0.0374973 0.001 0 0 255
-0.0234056 0.0327095 0.001 0 0 255
0.0185593 0.0170988 0.001 0 0 255
-0.00881738 -0.0355858 0.001 0 0 255
0.00934269 -0.0184049 0.001 0 0 255
0.0117513 -0.0124039 0.001 0 0 255
-0.03 0.0408463 0.000163076 0 0 255
-0.03 0.0359955 -0.000223212 0 0 255
-0.03 -0.0325731 -0.00011868 0 0 255
-0.03 -0.00923819 0.000497292 0 0 255
-0.03 -0.00617108 -0.000431295 0 0 255
-0.03 -0.026535 -0.000679694 0 0 255
-0.03 0.0286713 -0.000442622 0 0 255
-0.03 0.00549637 -0.0006802 0 0 255
-0.03 0.0314498 0.000726739 0 0 255
-0.03 0.0202816 -0.000192594 0 0 255
-0.03 -0.0265885 -0.000732496 0 0 255
-0.03 -0.0284381 -4.87534e-05 0 0 255
-0.03 -0.0394472 -0.000328493 0 0 255
-0.03 -0.00761136 -0.000900377 0 0 255
-0.03 0.0251846 0.000406799 0 0 255
-0.03 -0.0251966 -0.000508002 0 0 255
-0.03 0.0228552 0.000697427 0 0 255
-0.03 -0.00444921 -0.000118044 0 0 255
0.03 -0.031192 0.000708423 0 0 255
0.03 0.0136586 -0.000664391 0 0 255
0.03 0.0252029 -0.000776666 0 0 255
0.03 0.0423884 -0.000176717 0 0 255
0.03 -0.015838 0.000349008 0 0 255
0.03 0.0109868 -0.000768703 0 0 255
0.03 -0.0445642 -0.000549958 0 0 255
0.03 0.0341673 3.89822e-05 0 0 255
0.03 -0.0406013 0.000621649 0 0 255
0.03 -0.0309389 0.000225187 0 0 255
0.03 -0.00878103 -0.000878396 0 0 255
0.03 -0.0203966 -0.000905516 0 0 255
0.03 0.00604866 0.000655155 0 0 255
0.03 -0.0145246 -0.00046174 0 0 255
0.03 0.00716855 0.000924798 0 0 255
0.03 -0.0207513 0.000613118 0 0 255
0.03 0.00423514 -0.000446128 0 0 255
0.03 -0.00380002 0.000164962 0 0 255
0.00921381 0.045 -0.000182488 0 0 255
0.00703966 0.045 0.000510969 0 0 255
-0.00285688 0.045 -0.000761864 0 0 255
-0.0146381 0.045 0.000601822 0 0 255
-0.0121405 0.045 -0.000501993 0 0 255
0.0184894 0.045 0.000667885 0 0 255
-0.00357383 0.045 -0.00018746 0 0 255
-0.02816 0.045 -0.000986194 0 0 255
-0.0141991 0.045 -0.000619775 0 0 255
0.00789036 0.045 -0.000836836 0 0 255
0.028952 0.045 -0.000166377 0 0 255
0.0209294 0.045 0.000565519 0 0 255
0.0240911 -0.045 -0.000915647 0 0 255
0.0255723 -0.045 0.000325131 0 0 255
-0.0103418 -0.045 2.26986e-05 0 0 255
0.0153958 -0.045 0.00038202 0 0 255
0.0141576 -0.045 -0.000709125 0 0 255
0.0073223 -0.045 0.000819587 0 0 255
0.00254963 -0.045 -2.39836e-06 0 0 255
-0.0133416 -0.045 -0.000817924 0 0 255
-0.00617611 -0.045 -0.00062805 0 0 255
-0.0145661 -0.045 -0.00043804 0 0 255
0.00231115 -0.045 0.000157819 0 0 255
0.0156145 -0.045 0.000147102 0 0 255
