ply
format ascii 1.0
comment Created by Open3D
element vertex 536
property double x
property double y
property double z
property uchar red
property uchar green
property uchar blue
end_header
0.0205431 0.0286275 -0.0995 204 26 26
0.0268538 -0.0170043 -0.0995 204 26 26
-0.0258797 0.00780608 -0.0995 204 26 26
-0.0214679 -0.0262286 -0.0995 204 26 26
0.0124818 0.0195509 -0.0995 204 26 26
-0.0195156 0.0252675 -0.0995 204 26 26
-0.0282926 -0.0286123 -0.0995 204 26 26
-0.00385611 -0.0207099 -0.0995 204 26 26
-0.00801834 0.00443285 -0.0995 204 26 26
-0.00589297 -0.00833112 -0.0995 204 26 26
-0.0260538 -0.0113595 -0.0995 204 26 26
0.0144611 0.0120112 -0.0995 204 26 26
-0.0257616 0.0177247 -0.0995 204 26 26
0.00883629 -0.0234167 -0.0995 204 26 26
0.0233319 0.0259615 -0.0995 204 26 26
0.0222809 -0.0081026 -0.0995 204 26 26
-0.00970846 0.0159472 -0.0995 204 26 26
0.0222304 -0.0126742 -0.0995 204 26 26
-0.0187033 -0.0205458 -0.0995 204 26 26
0.00360256 -0.012638 -0.0995 204 26 26
-0.0236399 -0.00331635 -0.0995 204 26 26
-0.00291912 -0.0282449 -0.0995 204 26 26
0.00361823 0.00790733 -0.0995 204 26 26
0.0282238 -0.00332314 -0.0995 204 26 26
0.0192038 -0.00547422 -0.0995 204 26 26
-0.0229224 0.000106329 -0.0995 204 26 26
0.00141953 -0.011809 -0.0995 204 26 26
-0.0124256 -0.0234401 -0.0995 204 26 26
0.00126215 -0.0190029 -0.0995 204 26 26
0.0184857 0.00279359 -0.0995 204 26 26
-0.016115 0.017775 -0.0995 204 26 26
-0.00364254 0.0205913 -0.0995 204 26 26
0.0184185 0.0186005 -0.0995 204 26 26
-0.0205185 -0.00368213 -0.0995 204 26 26
0.00913248 0.00428433 0.0995 204 26 26
0.0233757 0.0246489 0.0995 204 26 26
-0.0204973 -0.028959 0.0995 204 26 26
-0.0106963 -0.0144647 0.0995 204 26 26
0.0154332 0.00594454 0.0995 204 26 26
0.0194759 -0.0211395 0.0995 204 26 26
-0.0279278 -0.0288303 0.0995 204 26 26
-0.00171746 -0.00320366 0.0995 204 26 26
0.0176232 0.0221241 0.0995 204 26 26
0.0150031 0.00316853 0.0995 204 26 26
-0.00441574 0.0216213 0.0995 204 26 26
-0.00821097 0.00558747 0.0995 204 26 26
0.0138843 0.00141384 0.0995 204 26 26
0.00931552 -0.0271074 0.0995 204 26 26
-0.0274261 -0.0227531 0.0995 204 26 26
0.028298 -0.00100393 0.0995 204 26 26
-0.0120212 0.0276156 0.0995 204 26 26
0.0285745 -0.0122713 0.0995 204 26 26
-0.0130326 -0.0292418 0.0995 204 26 26
0.0237056 0.0161022 0.0995 204 26 26
-0.00234648 0.0170112 0.0995 204 26 26
-0.00414274 0.0025475 0.0995 204 26 26
-0.00542164 0.0284916 0.0995 204 26 26
-0.0264324 0.00910726 0.0995 204 26 26
-0.00696638 0.000217247 0.0995 204 26 26
0.00195668 0.00264081 0.0995 204 26 26
0.0269029 0.00601371 0.0995 204 26 26
-0.00800921 -0.00897413 0.0995 204 26 26
0.0207986 0.0197978 0.0995 204 26 26
-0.0291025 -0.0246108 0.0995 204 26 26
0.0222395 -0.00330422 0.0995 204 26 26
0.0231394 -0.0176629 0.0995 204 26 26
0.0189374 0.0204848 0.0995 204 26 26
-0.0247134 -0.00339526 0.0995 204 26 26
-0.0295 -0.0246737 -0.0748229 204 26 26
-0.0295 0.0284579 -0.0705343 204 26 26
-0.0295 0.0186511 -0.0378949 204 26 26
-0.0295 -0.0119474 -0.0283509 204 26 26
-0.0295 0.00516195 -0.0657732 204 26 26
-0.0295 -0.0101398 0.02458 204 26 26
-0.0295 0.007673 0.0472826 204 26 26
-0.0295 0.0236512 0.0787535 204 26 26
-0.0295 0.0205463 -0.0622789 204 26 26
-0.0295 -0.0175935 0.0696431 204 26 26
-0.0295 0.0119412 0.0147693 204 26 26
-0.0295 -0.011851 0.00692503 204 26 26
-0.0295 0.0182921 0.0749482 204 26 26
-0.0295 0.00642229 -0.0621703 204 26 26
-0.0295 -0.0058181 -0.0866719 204 26 26
-0.0295 -0.017199 0.0182561 204 26 26
-0.0295 0.0285039 0.0777326 204 26 26
-0.0295 0.00765989 -0.0603824 204 26 26
-0.0295 0.0138665 -0.0135954 204 26 26
-0.0295 -0.00369461 -0.024483 204 26 26
-0.0295 0.00269725 0.00760387 204 26 26
-0.0295 -0.000528134 -0.0588211 204 26 26
-0.0295 -0.00562353 0.00846862 204 26 26
-0.0295 -0.025035 -0.0311107 204 26 26
-0.0295 0.026444 0.0751183 204 26 26
-0.0295 -0.0151383 -0.043045 204 26 26
-0.0295 -0.0152747 -0.0409743 204 26 26
-0.0295 -0.0155177 0.0333143 204 26 26
-0.0295 0.0293949 0.0840356 204 26 26
-0.0295 0.00328516 -0.0419845 204 26 26
-0.0295 0.0285189 0.0200183 204 26 26
-0.0295 0.0234153 -0.061529 204 26 26
-0.0295 0.00245332 0.0287631 204 26 26
-0.0295 0.00194422 -0.0528369 204 26 26
-0.0295 -0.0271335 0.0597794 204 26 26
-0.0295 0.00978704 -0.0473435 204 26 26
-0.0295 -0.0274844 -0.0283957 204 26 26
-0.0295 -0.0234977 0.0564453 204 26 26
-0.0295 -0.00673303 -0.0839335 204 26 26
-0.0295 0.0163681 -0.0407119 204 26 26
-0.0295 -0.00680915 -0.0383962 204 26 26
-0.0295 -0.0138055 -0.0273463 204 26 26
-0.0295 0.00655582 -0.0601438 204 26 26
-0.0295 0.0130499 -0.0164917 204 26 26
-0.0295 -0.00437684 -0.0881467 204 26 26
-0.0295 0.0163307 0.00182278 204 26 26
-0.0295 0.010013 -0.0873643 204 26 26
-0.0295 -0.00717785 -0.0791958 204 26 26
-0.0295 0.0097247 -0.017586 204 26 26
-0.0295 0.00970257 0.0317077 204 26 26
-0.0295 -0.00576603 0.00599826 204 26 26
-0.0295 -0.000292923 -0.0828011 204 26 26
-0.0295 -0.00775585 0.0789419 204 26 26
-0.0295 0.00946078 0.0444948 204 26 26
-0.0295 0.00414176 -0.0453484 204 26 26
-0.0295 0.00477853 -0.0187385 204 26 26
-0.0295 0.0113277 -0.071558 204 26 26
-0.0295 0.00132912 0.0423996 204 26 26
-0.0295 -0.0168884 0.0730557 204 26 26
-0.0295 -0.0282622 -0.0242794 204 26 26
-0.0295 -0.0185094 -0.0656891 204 26 26
-0.0295 -0.0154308 0.05735 204 26 26
-0.0295 -0.000441645 0.0768649 204 26 26
-0.0295 0.00181546 0.0823052 204 26 26
-0.0295 -0.00432258 -0.0979728 204 26 26
-0.0295 0.0284571 0.0582027 204 26 26
-0.0295 -0.010353 -0.0517737 204 26 26
-0.0295 -0.00156823 -0.00545351 204 26 26
-0.0295 0.026062 -0.0208875 204 26 26
-0.0295 0.0212406 -0.0631131 204 26 26
-0.0295 0.0102199 0.00449877 204 26 26
-0.0295 0.00133509 0.065067 204 26 26
-0.0295 -0.0109925 -0.0163361 204 26 26
-0.0295 0.00535302 -0.0279948 204 26 26
-0.0295 0.0163443 -0.0489527 204 26 26
-0.0295 0.0200525 0.0537534 204 26 26
-0.0295 0.0254892 0.0376041 204 26 26
-0.0295 -0.0119606 -0.0560201 204 26 26
-0.0295 0.0209372 0.0610476 204 26 26
-0.0295 0.018626 -0.0214212 204 26 26
-0.0295 0.0285725 -0.020021 204 26 26
-0.0295 -0.00675517 -0.0408415 204 26 26
-0.0295 0.0108976 -0.0844596 204 26 26
-0.0295 -0.00484795 0.0604791 204 26 26
-0.0295 0.0263298 -0.0608323 204 26 26
-0.0295 -0.0187002 0.0794363 204 26 26
-0.0295 0.00383401 -0.092842 204 26 26
-0.0295 0.005777 0.0313457 204 26 26
-0.0295 0.00318967 0.0608733 204 26 26
-0.0295 -0.00994629 0.0317512 204 26 26
-0.0295 0.0194892 -0.0674038 204 26 26
-0.0295 0.00142552 0.0515336 204 26 26
-0.0295 0.0231307 0.0173296 204 26 26
-0.0295 0.0202123 -0.0559023 204 26 26
-0.0295 4.31921e-05 0.0771974 204 26 26
-0.0295 -0.00239457 -0.0865996 204 26 26
-0.0295 0.0206719 0.0861606 204 26 26
-0.0295 0.0155148 -0.0629233 204 26 26
-0.0295 -0.027911 0.0977362 204 26 26
-0.0295 -0.0189637 -0.0409233 204 26 26
-0.0295 0.00535002 -0.0260724 204 26 26
-0.0295 0.0118876 0.096855 204 26 26
-0.0295 0.0201875 -0.0118847 204 26 26
-0.0295 -0.00631118 -0.084343 204 26 26
-0.0295 0.0234584 0.0660439 204 26 26
-0.0295 0.028009 -0.0879644 204 26 26
-0.0295 -0.0124268 -0.0373386 204 26 26
-0.0295 -0.0275425 -0.00062796 204 26 26
-0.0295 0.0233983 -0.0401425 204 26 26
-0.0295 -0.000637932 0.0367894 204 26 26
-0.0295 0.0226225 -0.0813057 204 26 26
-0.0295 4.32953e-05 -0.0843151 204 26 26
-0.0295 0.0149354 -0.00716937 204 26 26
-0.0295 -0.015038 -0.0936179 204 26 26
-0.0295 -0.0100876 0.0743377 204 26 26
-0.0295 0.00677488 0.0856905 204 26 26
-0.0295 0.00413034 -0.00141447 204 26 26
0.0295 -0.000721798 0.056581 204 26 26
0.0295 0.0258868 -0.0493267 204 26 26
0.0295 0.0089205 -0.0705229 204 26 26
0.0295 0.00664367 -0.0939156 204 26 26
0.0295 0.00425404 -0.05504 204 26 26
0.0295 -0.0186308 0.0320369 204 26 26
0.0295 0.0157399 -0.0419096 204 26 26
0.0295 0.0166888 0.0537071 204 26 26
0.0295 0.028523 -0.079003 204 26 26
0.0295 0.0198778 -0.0471771 204 26 26
0.0295 0.027445 -0.0197421 204 26 26
0.0295 0.0255438 -0.0451008 204 26 26
0.0295 -0.000203624 0.0612328 204 26 26
0.0295 0.00325772 -0.0206742 204 26 26
0.0295 -0.000684593 -0.00739013 204 26 26
0.0295 0.00384492 0.0912872 204 26 26
0.0295 -0.0253054 -0.00464217 204 26 26
0.0295 0.0206506 -0.0600633 204 26 26
0.0295 -0.0155517 -0.0187928 204 26 26
0.0295 -0.019245 -0.0756817 204 26 26
0.0295 -0.00308643 -0.0626008 204 26 26
0.0295 -0.0184929 0.0275333 204 26 26
0.0295 -0.00638484 -0.0989173 204 26 26
0.0295 -0.0102855 0.0204782 204 26 26
0.0295 -0.0132213 -0.0705036 204 26 26
0.0295 0.0135935 -0.0418876 204 26 26
0.0295 0.0219243 -0.0425666 204 26 26
0.0295 -0.0255507 -0.029688 204 26 26
0.0295 -0.0180295 0.0111267 204 26 26
0.0295 0.000249322 -0.0814261 204 26 26
0.0295 -0.0198078 -0.0721918 204 26 26
0.0295 -0.0212597 -0.0694029 204 26 26
0.0295 0.0252626 -0.0234649 204 26 26
0.0295 0.0233358 -0.0855232 204 26 26
0.0295 0.0121996 -0.0298308 204 26 26
0.0295 -0.00429858 0.0402327 204 26 26
0.0295 0.0106265 0.0354557 204 26 26
0.0295 0.0153776 -0.0462074 204 26 26
0.0295 -0.022728 0.0759061 204 26 26
0.0295 0.0241763 -0.0770456 204 26 26
0.0295 -0.00719716 -0.041455 204 26 26
0.0295 -0.0229351 0.0803676 204 26 26
0.0295 0.00966965 0.00795239 204 26 26
0.0295 -0.00546438 0.0960525 204 26 26
0.0295 -0.00695817 -0.0631655 204 26 26
0.0295 -0.0118061 0.00261249 204 26 26
0.0295 0.00185245 0.0738251 204 26 26
0.0295 -0.0284377 -0.0447717 204 26 26
0.0295 0.0177519 -0.0170561 204 26 26
0.0295 0.0259049 0.0904104 204 26 26
0.0295 -0.00197817 0.0704304 204 26 26
0.0295 0.0142046 -0.052965 204 26 26
0.0295 -0.0120339 -0.0108512 204 26 26
0.0295 -0.013327 0.0416668 204 26 26
0.0295 -0.0293414 0.0241461 204 26 26
0.0295 -0.0227078 0.00571547 204 26 26
0.0295 0.0148498 -0.0281786 204 26 26
0.0295 0.0075233 -0.00889155 204 26 26
0.0295 -0.00486103 0.094608 204 26 26
0.0295 0.0105431 0.0582637 204 26 26
0.0295 -0.00690434 -0.0150202 204 26 26
0.0295 0.00979383 0.0168208 204 26 26
0.0295 -0.00105967 0.0124018 204 26 26
0.0295 -0.0109202 0.0803051 204 26 26
0.0295 -0.027169 0.0465763 204 26 26
0.0295 -0.00494903 0.000433781 204 26 26
0.0295 0.0143171 -0.0206428 204 26 26
0.0295 0.00697333 0.0641733 204 26 26
0.0295 0.0132627 -0.0454663 204 26 26
0.0295 0.0188413 -0.00508458 204 26 26
0.0295 -0.0246607 0.0753805 204 26 26
0.0295 0.0131619 -0.0126013 204 26 26
0.0295 0.0123781 -0.0223366 204 26 26
0.0295 -0.00861006 0.0830514 204 26 26
0.0295 -0.00789814 0.0479183 204 26 26
0.0295 -0.00445627 0.0497521 204 26 26
0.0295 -0.000961839 -0.0971805 204 26 26
0.0295 -0.0217689 0.0498773 204 26 26
0.0295 -0.0113096 -0.0512557 204 26 26
0.0295 0.024057 0.0967677 204 26 26
0.0295 -0.0138103 0.0394655 204 26 26
0.0295 -0.0147603 0.00138744 204 26 26
0.0295 -0.0155011 0.014896 204 26 26
0.0295 0.00563554 0.0332614 204 26 26
0.0295 0.0274765 -0.0352547 204 26 26
0.0295 -0.0294489 0.0542614 204 26 26
0.0295 -0.0176404 -0.0196849 204 26 26
0.0295 0.0223293 0.0102441 204 26 26
0.0295 0.0264595 0.076476 204 26 26
0.0295 0.0164852 -0.0472428 204 26 26
0.0295 0.0214542 -0.0790061 204 26 26
0.0295 -0.0230945 0.0568224 204 26 26
0.0295 -0.0274789 0.0408194 204 26 26
0.0295 -0.00359664 0.0759903 204 26 26
0.0295 0.00391895 0.0807472 204 26 26
0.0295 0.0015406 0.0570029 204 26 26
0.0295 -0.00942136 0.0948624 204 26 26
0.0295 0.0149682 0.0380076 204 26 26
0.0295 0.0133696 0.0799176 204 26 26
0.0295 -0.0182027 0.0929338 204 26 26
0.0295 0.0250862 -0.0814833 204 26 26
0.0295 -0.0285389 0.0864582 204 26 26
0.0295 0.000651121 -0.0061018 204 26 26
0.0295 0.0186309 0.0926133 204 26 26
0.0295 -0.0217397 -0.0411703 204 26 26
0.0295 -0.015716 0.0186128 204 26 26
0.0295 -0.00940764 0.095746 204 26 26
0.0295 -0.00695874 -0.0288159 204 26 26
0.0295 0.0253115 0.0181829 204 26 26
0.0295 0.00862319 -2.70864e-06 204 26 26
0.0295 -0.000758988 -0.0581946 204 26 26
0.0295 0.0255315 0.0880861 204 26 26
0.0295 -0.0140321 -0.0098718 204 26 26
0.0295 -0.00770713 0.00309578 204 26 26
0.0295 0.000798437 -0.0481992 204 26 26
0.0295 0.0294485 -0.069058 204 26 26
0.0295 0.0183218 0.0909339 204 26 26
0.001514 0.0295 0.0488655 204 26 26
0.0282467 0.0295 0.0412705 204 26 26
-0.0180774 0.0295 -0.0341899 204 26 26
-5.41142e-05 0.0295 0.0650939 204 26 26
0.0204387 0.0295 0.0673126 204 26 26
-0.0242205 0.0295 0.0510605 204 26 26
0.021245 0.0295 -0.0497682 204 26 26
0.00647754 0.0295 -0.00451973 204 26 26
-0.0103641 0.0295 -0.0633658 204 26 26
0.00977505 0.0295 0.00450664 204 26 26
0.012172 0.0295 -0.0912166 204 26 26
0.0201043 0.0295 0.0534551 204 26 26
0.0229522 0.0295 0.00580749 204 26 26
0.0195468 0.0295 0.0128267 204 26 26
-0.00305872 0.0295 -0.044367 204 26 26
0.0189487 0.0295 -0.0830249 204 26 26
0.0294625 0.0295 0.0521967 204 26 26
0.0251338 0.0295 1.52364e-05 204 26 26
0.0222652 0.0295 -0.0294501 204 26 26
-0.0237642 0.0295 0.00680321 204 26 26
0.0206646 0.0295 0.0949297 204 26 26
0.0266568 0.0295 -0.0946061 204 26 26
0.0287402 0.0295 -0.0470184 204 26 26
0.0114185 0.0295 0.0628924 204 26 26
0.0135783 0.0295 -0.0498187 204 26 26
-0.0277865 0.0295 -0.0348247 204 26 26
-0.0244995 0.0295 0.0895294 204 26 26
0.0199185 0.0295 -0.0171505 204 26 26
0.0146103 0.0295 -0.010664 204 26 26
-0.0289442 0.0295 0.0593465 204 26 26
0.0224787 0.0295 -0.0707276 204 26 26
-0.0227792 0.0295 0.0529621 204 26 26
0.000806735 0.0295 -0.00086373 204 26 26
-0.0233566 0.0295 0.0437668 204 26 26
-0.0108676 0.0295 -0.0816434 204 26 26
-0.024426 0.0295 0.0337278 204 26 26
0.00359271 0.0295 -0.0850765 204 26 26
0.0278661 0.0295 0.0357804 204 26 26
0.00316974 0.0295 0.0514914 204 26 26
0.00948162 0.0295 0.0293176 204 26 26
-0.0227442 0.0295 -0.0123945 204 26 26
-0.0165941 0.0295 0.0933833 204 26 26
0.0260623 0.0295 -0.0695462 204 26 26
0.0118132 0.0295 -0.0829614 204 26 26
-0.0089588 0.0295 -0.0133768 204 26 26
0.00477599 0.0295 0.0658656 204 26 26
-0.027353 0.0295 -0.0359677 204 26 26
-0.0136312 0.0295 -0.0369987 204 26 26
-0.0281334 0.0295 -0.095761 204 26 26
0.0016938 0.0295 -0.0798523 204 26 26
-0.0242072 0.0295 0.0802835 204 26 26
0.0143874 0.0295 -0.0094853 204 26 26
0.00177285 0.0295 0.0585119 204 26 26
-0.000604091 0.0295 0.0726413 204 26 26
-0.0126442 0.0295 -0.0656732 204 26 26
0.00962025 0.0295 0.00917166 204 26 26
0.0229592 0.0295 0.0738529 204 26 26
0.00938722 0.0295 0.0900909 204 26 26
0.0293444 0.0295 -0.0649488 204 26 26
0.000146656 0.0295 -0.00496212 204 26 26
-0.0119343 0.0295 0.0384531 204 26 26
0.00909505 0.0295 -0.00456985 204 26 26
0.020764 0.0295 -0.0615124 204 26 26
-0.00756553 0.0295 -0.0296368 204 26 26
-0.0252076 0.0295 -0.0575925 204 26 26
-0.0111942 0.0295 -0.0348051 204 26 26
-0.00659776 0.0295 0.0982379 204 26 26
-0.0140329 0.0295 0.0422629 204 26 26
0.0176037 0.0295 -0.0992484 204 26 26
-0.016992 0.0295 0.0344526 204 26 26
-0.0108294 0.0295 0.0293924 204 26 26
0.0261086 0.0295 -0.021361 204 26 26
0.00683701 0.0295 0.00794534 204 26 26
-0.0257695 0.0295 0.0689015 204 26 26
-0.0247324 0.0295 0.0618894 204 26 26
0.00134416 0.0295 0.0363059 204 26 26
0.0188696 0.0295 0.0668005 204 26 26
-0.0183199 0.0295 -0.0381243 204 26 26
-0.0101987 0.0295 -0.0615332 204 26 26
-0.0151809 0.0295 -0.0261619 204 26 26
-0.000177117 0.0295 -0.073962 204 26 26
-0.00108059 0.0295 0.0856391 204 26 26
-0.00710527 0.0295 -0.0262545 204 26 26
0.0029899 0.0295 -0.0829418 204 26 26
-0.00483946 0.0295 -0.0470326 204 26 26
-0.0202207 0.0295 -0.0684116 204 26 26
-0.000909197 0.0295 -0.093775 204 26 26
0.00119787 0.0295 -0.00345671 204 26 26
-0.0148063 0.0295 0.0667159 204 26 26
-0.00738905 0.0295 0.0539368 204 26 26
-0.0245282 0.0295 -0.0592318 204 26 26
0.0104994 0.0295 0.0160858 204 26 26
-0.0249477 0.0295 -0.0776794 204 26 26
0.0115821 0.0295 0.0556862 204 26 26
0.0152921 0.0295 0.0180346 204 26 26
-0.0118037 0.0295 0.0800647 204 26 26
-0.0129999 0.0295 -0.00155306 204 26 26
0.0183594 0.0295 0.00643317 204 26 26
-0.000821788 0.0295 -0.0462273 204 26 26
0.0219616 0.0295 0.0253071 204 26 26
0.0228039 0.0295 -0.0746602 204 26 26
-0.0111003 0.0295 0.0233033 204 26 26
0.012436 0.0295 0.0674014 204 26 26
-0.0114784 0.0295 -0.0612643 204 26 26
0.0131595 0.0295 0.064963 204 26 26
0.0155757 0.0295 -0.0866033 204 26 26
0.0226526 0.0295 -0.0267615 204 26 26
0.016994 0.0295 -0.0395389 204 26 26
-0.00763691 0.0295 0.063209 204 26 26
-0.0217246 0.0295 -0.0551893 204 26 26
0.010055 0.0295 0.0650961 204 26 26
-0.00242685 0.0295 0.0748792 204 26 26
-0.00278343 0.0295 0.00504701 204 26 26
0.0205735 0.0295 -0.0276691 204 26 26
-0.00789583 0.0295 0.0622203 204 26 26
0.0108793 0.0295 0.0653043 204 26 26
0.0289426 0.0295 0.0928824 204 26 26
-0.0209032 -0.0295 0.0116381 204 26 26
0.00872814 -0.0295 0.0495989 204 26 26
-0.0228273 -0.0295 0.0494573 204 26 26
0.0157719 -0.0295 0.0466682 204 26 26
0.0133366 -0.0295 0.0508194 204 26 26
0.00830378 -0.0295 -0.0948898 204 26 26
0.0121943 -0.0295 0.0611284 204 26 26
-0.0189137 -0.0295 -0.0190385 204 26 26
0.0200091 -0.0295 0.012672 204 26 26
0.00410458 -0.0295 -0.0744151 204 26 26
0.0291026 -0.0295 0.0646795 204 26 26
-0.029129 -0.0295 0.010639 204 26 26
-0.0255829 -0.0295 -0.0223661 204 26 26
-0.015505 -0.0295 0.0143207 204 26 26
-0.0143922 -0.0295 0.080155 204 26 26
0.0175385 -0.0295 -0.0346386 204 26 26
0.00620327 -0.0295 0.0699304 204 26 26
-0.0267785 -0.0295 -0.0954172 204 26 26
-0.00887581 -0.0295 -0.0590762 204 26 26
0.0112853 -0.0295 -0.0788768 204 26 26
0.0150843 -0.0295 -0.0293095 204 26 26
-0.0270791 -0.0295 -0.0522129 204 26 26
0.00880276 -0.0295 -0.0449003 204 26 26
0.0242262 -0.0295 0.03454 204 26 26
-0.0244736 -0.0295 0.0711229 204 26 26
-0.022977 -0.0295 -0.0603615 204 26 26
0.0205571 -0.0295 -0.0831856 204 26 26
-0.00608983 -0.0295 0.0639891 204 26 26
-0.0194222 -0.0295 0.0877495 204 26 26
-0.00645415 -0.0295 -0.0209561 204 26 26
0.0272827 -0.0295 -0.0197198 204 26 26
-0.0225108 -0.0295 -0.0222842 204 26 26
0.0071587 -0.0295 -0.0886019 204 26 26
-0.0294599 -0.0295 -0.0542068 204 26 26
0.00874334 -0.0295 -0.0462014 204 26 26
0.0190909 -0.0295 -0.0186067 204 26 26
-0.0234279 -0.0295 -0.0350887 204 26 26
0.00021954 -0.0295 0.0621754 204 26 26
-0.00836979 -0.0295 -0.0520974 204 26 26
0.0134561 -0.0295 0.0302623 204 26 26
0.0239743 -0.0295 0.00348223 204 26 26
0.0179177 -0.0295 0.0810224 204 26 26
-0.0269362 -0.0295 -0.0306903 204 26 26
-0.00822908 -0.0295 0.0556467 204 26 26
-0.0125461 -0.0295 0.00427586 204 26 26
-0.00413323 -0.0295 0.0424373 204 26 26
-0.0129629 -0.0295 -0.0990582 204 26 26
0.0254717 -0.0295 0.0913304 204 26 26
-0.0231682 -0.0295 0.0682216 204 26 26
-0.0153493 -0.0295 -0.0665922 204 26 26
-0.00163713 -0.0295 -0.0744616 204 26 26
-0.0170071 -0.0295 -0.0430884 204 26 26
-0.00211774 -0.0295 0.014334 204 26 26
-0.0135555 -0.0295 0.0259363 204 26 26
0.0112372 -0.0295 -0.0147147 204 26 26
-0.0196174 -0.0295 0.022078 204 26 26
-0.0132995 -0.0295 -0.00212417 204 26 26
0.00536294 -0.0295 0.0299237 204 26 26
0.0272125 -0.0295 0.0598075 204 26 26
-0.0117089 -0.0295 0.0994644 204 26 26
0.0275018 -0.0295 0.0930373 204 26 26
0.00766243 -0.0295 0.0684289 204 26 26
-0.00546066 -0.0295 -0.0517144 204 26 26
0.0208487 -0.0295 -0.047156 204 26 26
-0.0238953 -0.0295 -0.0604384 204 26 26
0.00722779 -0.0295 -0.0201075 204 26 26
-0.00596962 -0.0295 -0.0416854 204 26 26
0.011876 -0.0295 0.0927085 204 26 26
0.0206295 -0.0295 -0.0404843 204 26 26
-0.0137395 -0.0295 -0.01108 204 26 26
-0.0135989 -0.0295 0.0327937 204 26 26
-0.0173681 -0.0295 0.0790324 204 26 26
0.0135774 -0.0295 0.0853465 204 26 26
-0.00894356 -0.0295 -0.0488539 204 26 26
-0.00842897 -0.0295 -0.0737053 204 26 26
-0.00725194 -0.0295 -0.099186 204 26 26
-0.0201184 -0.0295 0.0783574 204 26 26
-0.00957644 -0.0295 -0.00675844 204 26 26
0.0292178 -0.0295 0.0100808 204 26 26
-0.0280127 -0.0295 -0.0707445 204 26 26
0.00969529 -0.0295 -0.0921421 204 26 26
0.0286229 -0.0295 -0.00458614 204 26 26
0.0229093 -0.0295 -0.0616175 204 26 26
0.0137477 -0.0295 0.0914765 204 26 26
-0.0205213 -0.0295 0.0135764 204 26 26
0.0137908 -0.0295 0.0749478 204 26 26
-0.00994115 -0.0295 0.00776409 204 26 26
-0.0140823 -0.0295 0.0777738 204 26 26
-0.00523607 -0.0295 0.0316513 204 26 26
-0.0279518 -0.0295 0.0349493 204 26 26
-0.0171393 -0.0295 -0.0689036 204 26 26
-0.0184677 -0.0295 -0.0562431 204 26 26
-0.000109097 -0.0295 0.0176058 204 26 26
-0.0166084 -0.0295 -0.0397902 204 26 26
0.00906166 -0.0295 0.0899109 204 26 26
0.010361 -0.0295 -0.0281101 204 26 26
0.0278465 -0.0295 0.00919344 204 26 26
0.0265594 -0.0295 0.0391598 204 26 26
-0.019534 -0.0295 -0.0259717 204 26 26
-0.00888337 -0.0295 0.0921028 204 26 26
-0.0279551 -0.0295 -0.0161687 204 26 26
0.013197 -0.0295 -0.0495911 204 26 26
0.00709369 -0.0295 0.0437529 204 26 26
0.01912 -0.0295 0.02397 204 26 26
0.00956023 -0.0295 0.0225958 204 26 26
-0.0106735 -0.0295 0.0911425 204 26 26
0.0216822 -0.0295 0.0759196 204 26 26
0.0272984 -0.0295 -0.0341048 204 26 26
-0.0135356 -0.0295 -0.0200081 204 26 26
0.00387143 -0.0295 -0.096347 204 26 26
-0.00291071 -0.0295 -0.0682021 204 26 26
0.0226319 -0.0295 -0.0764524 204 26 26
-0.00724723 -0.0295 0.057292 204 26 26
-0.0139838 -0.0295 -0.0775934 204 26 26
0.00186839 -0.0295 -0.0195691 204 26 26
0.00175173 -0.0295 -0.0941636 204 26 26
0.00443975 -0.0295 -0.026282 204 26 26
