ply
format ascii 1.0
comment Created by Open3D
element vertex 300
property double x
property double y
property double z
property uchar red
property uchar green
property uchar blue
end_header
-0.0128048 -0.00835733 -0.0495 204 26 26
0.0279266 -0.00528324 -0.0495 204 26 26
-0.0247553 0.0238279 -0.0495 204 26 26
-0.0272025 -0.0124179 -0.0495 204 26 26
-0.0263224 -0.0169839 -0.0495 204 26 26
0.00255151 -0.0237128 -0.0495 204 26 26
-0.0268852 0.0243123 -0.0495 204 26 26
-0.026493 0.00156874 -0.0495 204 26 26
0.00352659 0.0191884 -0.0495 204 26 26
-0.0027618 -0.0196824 -0.0495 204 26 26
-0.0111712 0.0177306 -0.0495 204 26 26
-0.00270325 0.0182226 -0.0495 204 26 26
0.0253946 0.0121979 -0.0495 204 26 26
-0.0023092 -0.0280586 -0.0495 204 26 26
-0.00812703 -0.0294876 -0.0495 204 26 26
0.0160706 0.0181474 -0.0495 204 26 26
0.00806926 -0.00752825 -0.0495 204 26 26
-0.0244204 0.0162801 -0.0495 204 26 26
0.00056426 0.00777298 -0.0495 204 26 26
-0.0124675 -0.00793626 -0.0495 204 26 26
-0.0290285 0.0216062 -0.0495 204 26 26
-0.00943443 -0.00702747 -0.0495 204 26 26
-0.0238392 0.0162391 -0.0495 204 26 26
0.00284688 0.0146493 -0.0495 204 26 26
-0.0147513 0.0104638 -0.0495 204 26 26
0.0261686 0.0184271 -0.0495 204 26 26
-0.0234124 -0.0212493 -0.0495 204 26 26
-0.0140574 -0.000475932 -0.0495 204 26 26
-0.000922369 -0.0175843 -0.0495 204 26 26
0.00709078 0.0232427 -0.0495 204 26 26
0.0171337 -0.0060175 -0.0495 204 26 26
0.0166458 -0.00486651 -0.0495 204 26 26
0.00972341 0.0269653 -0.0495 204 26 26
-0.0187519 -0.0171169 -0.0495 204 26 26
-0.00605328 -0.0176146 0.0495 204 26 26
-0.0154895 -0.00686502 0.0495 204 26 26
0.0191407 0.0233998 0.0495 204 26 26
0.0163823 -0.0100177 0.0495 204 26 26
-0.0231829 -0.0270374 0.0495 204 26 26
-0.0231508 0.0208031 0.0495 204 26 26
-0.0249309 0.0135339 0.0495 204 26 26
0.018587 0.0224602 0.0495 204 26 26
0.0184238 0.00883079 0.0495 204 26 26
0.0101188 0.0277044 0.0495 204 26 26
0.00902487 -0.0273861 0.0495 204 26 26
-0.0194536 0.0278931 0.0495 204 26 26
0.0263442 0.0163692 0.0495 204 26 26
-0.0268061 0.0191055 0.0495 204 26 26
0.00244326 -0.0201214 0.0495 204 26 26
0.00728294 -0.0210357 0.0495 204 26 26
0.0173934 -0.00872805 0.0495 204 26 26
-0.00808096 0.00332758 0.0495 204 26 26
-0.0183523 -0.0236425 0.0495 204 26 26
-0.00844403 0.00261267 0.0495 204 26 26
-0.00203232 0.0232648 0.0495 204 26 26
0.0195852 -0.00606432 0.0495 204 26 26
0.0253512 0.0234539 0.0495 204 26 26
0.0156669 -0.00343305 0.0495 204 26 26
0.0146258 0.0248164 0.0495 204 26 26
-0.0174896 0.00406565 0.0495 204 26 26
-0.0243823 0.0259681 0.0495 204 26 26
0.0126833 -0.0162133 0.0495 204 26 26
-0.0138214 0.0101278 0.0495 204 26 26
0.0044142 -0.00697545 0.0495 204 26 26
-0.0228244 0.00633368 0.0495 204 26 26
-0.00949949 0.00921765 0.0495 204 26 26
-0.0287872 0.0276626 0.0495 204 26 26
-0.0252394 -0.00731652 0.0495 204 26 26
-0.0295 -0.0166713 0.0382593 204 26 26
-0.0295 -0.0125339 0.0393524 204 26 26
-0.0295 -0.00668014 -0.0277445 204 26 26
-0.0295 -0.0172406 0.00188296 204 26 26
-0.0295 0.00485505 -0.0146733 204 26 26
-0.0295 0.00141253 0.0188149 204 26 26
-0.0295 2.30552e-05 -0.0494109 204 26 26
-0.0295 0.0147646 -0.0138743 204 26 26
-0.0295 -0.00911491 0.0453488 204 26 26
-0.0295 0.016543 0.045121 204 26 26
-0.0295 -0.00861259 0.00140647 204 26 26
-0.0295 0.0123794 -0.0305325 204 26 26
-0.0295 -0.00549364 0.0355018 204 26 26
-0.0295 0.00511973 -0.0487226 204 26 26
-0.0295 0.00400906 -0.0262347 204 26 26
-0.0295 -0.017052 0.00611151 204 26 26
-0.0295 0.0136558 -0.0181945 204 26 26
-0.0295 -0.0148148 0.0399367 204 26 26
-0.0295 -0.000429954 0.0368664 204 26 26
-0.0295 -0.0159548 -0.0255694 204 26 26
-0.0295 -0.00847241 0.0410372 204 26 26
-0.0295 -0.0261124 0.0224856 204 26 26
-0.0295 -0.000687689 -0.0471048 204 26 26
-0.0295 0.0155068 -0.0400937 204 26 26
-0.0295 0.027648 -0.00430224 204 26 26
-0.0295 -0.00847337 0.0242098 204 26 26
-0.0295 -0.0294197 -0.0255022 204 26 26
-0.0295 -0.0191147 0.0479003 204 26 26
-0.0295 -0.0240894 -0.00433825 204 26 26
-0.0295 -0.00908026 -0.0231781 204 26 26
-0.0295 -0.021934 -0.0162679 204 26 26
-0.0295 0.0256064 0.00894012 204 26 26
-0.0295 -0.0180818 -0.000181247 204 26 26
-0.0295 -0.0248637 -0.0232995 204 26 26
-0.0295 0.00835752 0.0142466 204 26 26
-0.0295 0.0148107 -0.00561063 204 26 26
-0.0295 -0.016887 0.0286481 204 26 26
-0.0295 -0.00755825 -0.0381646 204 26 26
-0.0295 0.027428 0.019605 204 26 26
-0.0295 0.0189366 0.0220359 204 26 26
-0.0295 -0.00222518 -0.0291822 204 26 26
-0.0295 -0.0141283 0.0381923 204 26 26
-0.0295 0.00873467 0.0209612 204 26 26
-0.0295 0.00815447 -0.0395028 204 26 26
-0.0295 0.00783264 -0.012521 204 26 26
-0.0295 0.0270648 -0.0395488 204 26 26
-0.0295 -0.00385204 -0.0352648 204 26 26
-0.0295 -0.00236669 0.00938674 204 26 26
-0.0295 0.00403839 -0.00729667 204 26 26
-0.0295 0.00730287 -0.04421 204 26 26
-0.0295 0.0147587 0.0482409 204 26 26
-0.0295 -0.0212468 -0.0258561 204 26 26
-0.0295 -0.00929239 0.0353741 204 26 26
-0.0295 0.00102931 -0.0225705 204 26 26
-0.0295 0.0294863 -0.0398858 204 26 26
-0.0295 -0.00118219 -0.0193315 204 26 26
-0.0295 -0.0206448 0.0463132 204 26 26
-0.0295 0.0158783 -0.0007365 204 26 26
0.0295 -0.0212223 -0.00137307 204 26 26
0.0295 -0.0108319 0.0154619 204 26 26
0.0295 -0.0121062 0.0207036 204 26 26
0.0295 0.00425339 0.0418898 204 26 26
0.0295 -0.0247834 0.00704911 204 26 26
0.0295 -0.0267285 -0.00213456 204 26 26
0.0295 0.00186864 -0.0161934 204 26 26
0.0295 0.0053242 -0.0221341 204 26 26
0.0295 0.0181052 0.018534 204 26 26
0.0295 0.0248332 0.0113041 204 26 26
0.0295 0.01115 -0.0387058 204 26 26
0.0295 0.0126279 0.0350109 204 26 26
0.0295 -0.0244657 0.0380713 204 26 26
0.0295 0.0119713 0.00983701 204 26 26
0.0295 -0.016977 0.0140201 204 26 26
0.0295 -0.0236778 -0.0157866 204 26 26
0.0295 -0.0125623 0.00610186 204 26 26
0.0295 0.011966 -0.0111775 204 26 26
0.0295 -0.0219236 0.0290164 204 26 26
0.0295 -0.00658947 -0.0265008 204 26 26
0.0295 0.0229816 -0.0264147 204 26 26
0.0295 0.0267287 -0.0475699 204 26 26
0.0295 0.0238059 0.0136096 204 26 26
0.0295 -0.0158753 -0.0199353 204 26 26
0.0295 0.00656691 0.0335603 204 26 26
0.0295 -0.0170252 0.0113925 204 26 26
0.0295 -0.002366 -0.0367274 204 26 26
0.0295 0.0227123 0.00585498 204 26 26
0.0295 0.015861 0.00561561 204 26 26
0.0295 0.0246006 -0.0236237 204 26 26
0.0295 -0.0154528 0.00997519 204 26 26
0.0295 -0.00294393 0.0421646 204 26 26
0.0295 -0.00442008 0.00605699 204 26 26
0.0295 0.000307966 0.0465126 204 26 26
0.0295 -0.0169314 -0.04503 204 26 26
0.0295 -0.0201157 -0.0324356 204 26 26
0.0295 0.0289082 0.0372433 204 26 26
0.0295 0.0151138 0.00219319 204 26 26
0.0295 -0.00190614 -0.026368 204 26 26
0.0295 -0.0284494 0.0295955 204 26 26
0.0295 0.0260775 0.00479255 204 26 26
0.0295 -0.00969828 0.00218698 204 26 26
0.0295 0.0205698 -0.0181196 204 26 26
0.0295 0.0143195 0.0426683 204 26 26
0.0295 -0.002128 0.0107144 204 26 26
0.0295 0.014546 0.0327907 204 26 26
0.0295 0.0062782 -0.0236594 204 26 26
0.0295 0.0101316 0.0340382 204 26 26
0.0295 -0.0106796 0.0046013 204 26 26
0.0295 0.0234717 -0.015275 204 26 26
0.0295 0.0268782 0.0142022 204 26 26
0.0295 0.0251768 -0.0322263 204 26 26
0.0295 -0.0168512 0.0392418 204 26 26
0.0295 0.0100935 -0.0055103 204 26 26
0.0295 0.00776217 -0.0234304 204 26 26
0.0295 0.0215039 0.0296229 204 26 26
0.0295 0.0261887 0.0224839 204 26 26
0.0295 0.0128747 0.00604199 204 26 26
-0.00680057 0.0295 0.0252 204 26 26
0.0185763 0.0295 0.0120949 204 26 26
-0.0278363 0.0295 0.0494687 204 26 26
-0.00677966 0.0295 -0.0469591 204 26 26
-0.012256 0.0295 -0.0338889 204 26 26
0.0101132 0.0295 -0.0477533 204 26 26
-0.0209534 0.0295 0.0180284 204 26 26
-0.00414997 0.0295 0.0402293 204 26 26
0.0176662 0.0295 -0.034192 204 26 26
0.0187962 0.0295 0.0297952 204 26 26
-0.0259707 0.0295 -0.0342634 204 26 26
0.026243 0.0295 0.0103536 204 26 26
0.00630161 0.0295 0.0274454 204 26 26
-0.0102234 0.0295 0.0152153 204 26 26
0.0204921 0.0295 0.0099528 204 26 26
0.00512659 0.0295 -0.00206562 204 26 26
-0.0115903 0.0295 0.0114705 204 26 26
-0.016417 0.0295 -0.026546 204 26 26
0.0274267 0.0295 -0.0485441 204 26 26
0.0124023 0.0295 0.013217 204 26 26
-0.0278644 0.0295 -0.00945109 204 26 26
0.00485366 0.0295 0.0454118 204 26 26
-0.0218024 0.0295 0.0394942 204 26 26
0.00892998 0.0295 0.0033903 204 26 26
-0.0137106 0.0295 -0.0395638 204 26 26
0.0197143 0.0295 -0.00256132 204 26 26
-0.0244663 0.0295 -0.000803614 204 26 26
0.011972 0.0295 -0.0422067 204 26 26
-0.0102766 0.0295 -0.04084 204 26 26
0.0239187 0.0295 0.0195964 204 26 26
0.0221164 0.0295 -0.0200148 204 26 26
-0.00148236 0.0295 -0.00434878 204 26 26
-0.00949523 0.0295 0.000914496 204 26 26
0.0211038 0.0295 -0.0384089 204 26 26
0.0262942 0.0295 0.0403282 204 26 26
-0.00014263 0.0295 0.000992141 204 26 26
-0.0198387 0.0295 -0.0217483 204 26 26
0.0227406 0.0295 -0.0237583 204 26 26
0.00515747 0.0295 -0.0411863 204 26 26
0.024844 0.0295 -0.0361795 204 26 26
-0.0104583 0.0295 0.0329238 204 26 26
-0.0227571 0.0295 0.0239296 204 26 26
-0.0016588 0.0295 -0.0291509 204 26 26
0.00354478 0.0295 -0.00951431 204 26 26
-0.0209986 0.0295 -0.0338036 204 26 26
-0.0223626 0.0295 0.0246222 204 26 26
-0.0176871 0.0295 -0.0417491 204 26 26
-0.0242195 0.0295 0.0440194 204 26 26
0.0284027 0.0295 0.0280541 204 26 26
-0.02121 0.0295 0.018172 204 26 26
0.000918808 0.0295 0.0372638 204 26 26
0.0230147 0.0295 0.0486488 204 26 26
0.0293825 0.0295 -0.0417987 204 26 26
-0.0147914 0.0295 -0.0440331 204 26 26
-0.00429554 0.0295 -0.0115756 204 26 26
0.0199474 0.0295 0.00991714 204 26 26
0.0271251 0.0295 0.0319567 204 26 26
0.0158698 0.0295 -0.0494276 204 26 26
-0.024804 -0.0295 -0.0167121 204 26 26
-0.0219822 -0.0295 -0.0191127 204 26 26
-0.0130097 -0.0295 0.0242386 204 26 26
-0.014083 -0.0295 0.0028083 204 26 26
0.0175452 -0.0295 -0.0387876 204 26 26
-0.0111921 -0.0295 -0.00529781 204 26 26
-0.0209822 -0.0295 -0.00220879 204 26 26
0.013744 -0.0295 0.0475823 204 26 26
-0.00567964 -0.0295 -0.0268674 204 26 26
-0.0277071 -0.0295 -0.0246578 204 26 26
0.0136349 -0.0295 0.0329774 204 26 26
0.023713 -0.0295 0.038495 204 26 26
0.0112569 -0.0295 0.00177579 204 26 26
-0.0260087 -0.0295 0.00734806 204 26 26
-0.025965 -0.0295 -0.00368642 204 26 26
0.000927782 -0.0295 0.023519 204 26 26
0.0204506 -0.0295 0.0165041 204 26 26
0.0283307 -0.0295 -0.0334106 204 26 26
0.0114734 -0.0295 -0.0250186 204 26 26
-0.0290859 -0.0295 0.0298235 204 26 26
-0.0270872 -0.0295 -0.0390881 204 26 26
0.00657593 -0.0295 0.0051409 204 26 26
-4.50662e-06 -0.0295 0.0120606 204 26 26
0.0280295 -0.0295 -0.00999304 204 26 26
0.00921121 -0.0295 -0.0223468 204 26 26
-0.00771805 -0.0295 -0.0195275 204 26 26
0.010784 -0.0295 -0.0264443 204 26 26
-0.0129276 -0.0295 0.0070072 204 26 26
0.0197047 -0.0295 -0.0493397 204 26 26
-0.0270999 -0.0295 0.0345621 204 26 26
0.0153599 -0.0295 0.0398604 204 26 26
0.00179794 -0.0295 0.0259057 204 26 26
-0.0115796 -0.0295 -0.0360058 204 26 26
-0.010805 -0.0295 0.00202841 204 26 26
0.0220099 -0.0295 -0.0213807 204 26 26
0.026132 -0.0295 0.0416604 204 26 26
0.000825919 -0.0295 0.0374088 204 26 26
-0.0121275 -0.0295 -0.0319659 204 26 26
0.020784 -0.0295 -0.0275041 204 26 26
0.0208555 -0.0295 0.0107589 204 26 26
0.0254226 -0.0295 0.0410599 204 26 26
0.0186696 -0.0295 0.0448297 204 26 26
-0.0105094 -0.0295 0.0401598 204 26 26
0.0227173 -0.0295 0.0126186 204 26 26
0.013723 -0.0295 -0.0436493 204 26 26
-0.0024981 -0.0295 0.0109213 204 26 26
-0.0184452 -0.0295 0.00385188 204 26 26
-0.0117998 -0.0295 0.00780115 204 26 26
-0.0259716 -0.0295 0.0180597 204 26 26
-0.00779077 -0.0295 -0.0106408 204 26 26
-0.0073118 -0.0295 0.0132545 204 26 26
-0.0145612 -0.0295 0.0254449 204 26 26
-0.00310481 -0.0295 0.022252 204 26 26
0.0163594 -0.0295 -0.0129147 204 26 26
-0.000538538 -0.0295 0.00871883 204 26 26
0.0163808 -0.0295 0.0186243 204 26 26
-0.0171089 -0.0295 -0.00354603 204 26 26
-0.0117306 -0.0295 0.00413402 204 26 26
