ply
format ascii 1.0
comment Created by Open3D
element vertex 1240
property double x
property double y
property double z
property uchar red
property uchar green
property uchar blue
end_header
0.00320702 -0.0533179 -0.0495 204 26 26
0.0896383 -0.0258208 -0.0495 204 26 26
-0.052823 0.00674578 -0.0495 204 26 26
0.0352523 0.0288014 -0.0495 204 26 26
-0.0278997 0.0554525 -0.0495 204 26 26
0.0802054 -0.0876012 -0.0495 204 26 26
-0.0345542 0.0319234 -0.0495 204 26 26
-0.0417459 -0.0441114 -0.0495 204 26 26
0.0409383 -0.0875896 -0.0495 204 26 26
0.085683 -0.0674706 -0.0495 204 26 26
-0.0475121 0.0390328 -0.0495 204 26 26
-0.0615665 -0.0202778 -0.0495 204 26 26
0.0366412 -0.0817746 -0.0495 204 26 26
-0.0271599 -0.0299661 -0.0495 204 26 26
0.0956896 0.0937142 -0.0495 204 26 26
0.0256693 -0.000518516 -0.0495 204 26 26
-0.000872925 -0.0285147 -0.0495 204 26 26
0.0713143 -0.0260097 -0.0495 204 26 26
0.0578704 0.0552593 -0.0495 204 26 26
-0.0308379 -0.068249 -0.0495 204 26 26
0.0490947 0.0497015 -0.0495 204 26 26
0.0511423 0.0264628 -0.0495 204 26 26
-0.0820107 -0.0160212 -0.0495 204 26 26
-0.0972341 0.0678534 -0.0495 204 26 26
0.0803479 -0.0216531 -0.0495 204 26 26
0.0658558 0.010523 -0.0495 204 26 26
-0.00133538 -0.0819031 -0.0495 204 26 26
-0.0731056 0.0161688 -0.0495 204 26 26
-0.0421116 -0.0702666 -0.0495 204 26 26
-0.0733706 0.0049599 -0.0495 204 26 26
0.00238219 0.00548996 -0.0495 204 26 26
-0.023722 -0.0679575 -0.0495 204 26 26
0.0814163 0.0202629 -0.0495 204 26 26
-0.0290663 0.0940875 -0.0495 204 26 26
0.0614203 -0.0673378 -0.0495 204 26 26
0.0280674 0.0667155 -0.0495 204 26 26
-0.0145756 -0.0739163 -0.0495 204 26 26
0.00365969 -0.041042 -0.0495 204 26 26
-0.00360699 -0.0565181 -0.0495 204 26 26
0.0077743 -0.0949141 -0.0495 204 26 26
0.0376052 -0.0500846 -0.0495 204 26 26
-0.0930689 0.0137637 -0.0495 204 26 26
0.0444464 -0.00504472 -0.0495 204 26 26
0.0625288 -0.084863 -0.0495 204 26 26
0.0385312 0.0101863 -0.0495 204 26 26
0.00674035 0.0795634 -0.0495 204 26 26
-0.05305 0.0134392 -0.0495 204 26 26
0.0672491 0.0699892 -0.0495 204 26 26
0.0785126 -0.0166341 -0.0495 204 26 26
0.0793525 0.0398365 -0.0495 204 26 26
-0.0973621 0.0975958 -0.0495 204 26 26
-0.0138624 0.0226678 -0.0495 204 26 26
0.031232 0.0704221 -0.0495 204 26 26
0.0399168 -0.0361179 -0.0495 204 26 26
0.00676004 0.0365386 -0.0495 204 26 26
-0.0895408 -0.0279734 -0.0495 204 26 26
-0.0737098 0.00306934 -0.0495 204 26 26
-0.0574938 0.0479068 -0.0495 204 26 26
0.0497272 0.0884818 -0.0495 204 26 26
-0.0878785 -0.0164575 -0.0495 204 26 26
0.0757047 0.0100649 -0.0495 204 26 26
0.0665159 0.0765712 -0.0495 204 26 26
-0.0566934 -0.0939915 -0.0495 204 26 26
-0.0767957 0.0549332 -0.0495 204 26 26
-0.00942621 -0.0264508 -0.0495 204 26 26
-0.0973438 -0.0440196 -0.0495 204 26 26
0.000306284 -0.065235 -0.0495 204 26 26
-0.0648485 -0.0523367 -0.0495 204 26 26
0.0494548 0.0424619 -0.0495 204 26 26
-0.0782271 -0.0479578 -0.0495 204 26 26
0.0728956 -0.0808285 -0.0495 204 26 26
-0.0263041 -0.0643307 -0.0495 204 26 26
-0.0419841 0.0600008 -0.0495 204 26 26
-0.0719497 -0.0331127 -0.0495 204 26 26
0.0582112 -0.0602808 -0.0495 204 26 26
0.0938894 -0.0441784 -0.0495 204 26 26
-0.0342984 -0.00161482 -0.0495 204 26 26
0.0815029 -0.0979621 -0.0495 204 26 26
0.0549984 -0.0169297 -0.0495 204 26 26
0.0184305 -0.0522735 -0.0495 204 26 26
-0.0392711 0.0634889 -0.0495 204 26 26
0.0697663 -0.00900673 -0.0495 204 26 26
-0.00838727 -0.0564206 -0.0495 204 26 26
-0.0427376 -0.0942534 -0.0495 204 26 26
0.0150411 0.0735471 -0.0495 204 26 26
-0.0555833 -0.047921 -0.0495 204 26 26
-0.0410094 -0.0970595 -0.0495 204 26 26
-0.0920341 0.0425722 -0.0495 204 26 26
-0.0666172 -0.000166171 -0.0495 204 26 26
-0.0529987 0.0211527 -0.0495 204 26 26
-0.038486 -0.0632291 -0.0495 204 26 26
-0.0494258 0.0411158 -0.0495 204 26 26
-0.0491801 0.0455453 -0.0495 204 26 26
-0.0257627 -0.0593461 -0.0495 204 26 26
-0.024469 -0.0647554 -0.0495 204 26 26
-0.0275311 0.0668729 -0.0495 204 26 26
-0.0732422 -0.00609251 -0.0495 204 26 26
0.0516985 0.0624433 -0.0495 204 26 26
0.086063 0.0231679 -0.0495 204 26 26
0.0511134 0.00901572 -0.0495 204 26 26
-0.090706 0.0938024 -0.0495 204 26 26
0.0774647 -0.0221581 -0.0495 204 26 26
0.039879 0.0488012 -0.0495 204 26 26
0.0295904 -0.0794226 -0.0495 204 26 26
-0.0310736 0.0681708 -0.0495 204 26 26
-0.0198456 -0.0505941 -0.0495 204 26 26
-0.0177914 0.0141887 -0.0495 204 26 26
-0.0254901 -0.0542099 -0.0495 204 26 26
0.0991862 -0.0526649 -0.0495 204 26 26
0.0340967 -0.000952758 -0.0495 204 26 26
-0.0402427 0.0125625 -0.0495 204 26 26
-0.0132348 -0.0460809 -0.0495 204 26 26
-0.038339 -0.018097 -0.0495 204 26 26
-0.022383 0.0784098 -0.0495 204 26 26
0.0256497 -0.0420944 -0.0495 204 26 26
-0.0265943 0.0753757 -0.0495 204 26 26
0.00536763 -0.0873599 -0.0495 204 26 26
0.0438785 0.0440797 -0.0495 204 26 26
0.0061821 0.0946456 -0.0495 204 26 26
-0.0654748 0.0487674 -0.0495 204 26 26
0.0149948 0.0123347 -0.0495 204 26 26
0.0689293 0.0116348 -0.0495 204 26 26
-0.012388 -0.0577943 -0.0495 204 26 26
0.0923478 -0.052082 -0.0495 204 26 26
-0.0363509 -0.0453921 -0.0495 204 26 26
0.0512661 0.0288689 -0.0495 204 26 26
-0.0302453 0.0363006 -0.0495 204 26 26
0.0489818 0.0636376 -0.0495 204 26 26
0.0978822 -0.0893103 -0.0495 204 26 26
-0.0130998 0.0179091 -0.0495 204 26 26
-0.0452669 0.0962034 -0.0495 204 26 26
-0.0259563 -0.0282755 -0.0495 204 26 26
0.0806344 -0.0427833 -0.0495 204 26 26
-0.0970841 0.0885536 -0.0495 204 26 26
0.0463421 -0.00905359 -0.0495 204 26 26
0.0990614 0.0595223 -0.0495 204 26 26
0.0561601 -0.0275853 -0.0495 204 26 26
-0.0250458 -0.0814019 -0.0495 204 26 26
-0.081413 0.0756592 -0.0495 204 26 26
0.00484459 0.0449912 -0.0495 204 26 26
0.0694898 0.0772617 -0.0495 204 26 26
0.0273417 -0.0892925 -0.0495 204 26 26
-0.0528754 0.0415058 -0.0495 204 26 26
0.0908544 -0.056834 -0.0495 204 26 26
-0.0976838 0.047583 -0.0495 204 26 26
-0.0280023 0.0890525 -0.0495 204 26 26
-0.0591532 0.0094933 -0.0495 204 26 26
-0.0230001 -0.0530539 -0.0495 204 26 26
-0.0906996 -0.0181595 -0.0495 204 26 26
-0.0668236 0.0420655 -0.0495 204 26 26
0.0742465 -0.0549232 -0.0495 204 26 26
-0.0444979 0.0841821 -0.0495 204 26 26
-0.0614372 -0.0291655 -0.0495 204 26 26
-0.0725954 -0.0101939 -0.0495 204 26 26
0.0288639 0.0526889 -0.0495 204 26 26
0.078229 -0.0485805 -0.0495 204 26 26
-0.0487729 0.00663011 -0.0495 204 26 26
0.0535737 -0.0242491 -0.0495 204 26 26
0.0841161 0.0717272 -0.0495 204 26 26
0.0960992 0.0554697 -0.0495 204 26 26
-0.0243427 0.0886244 -0.0495 204 26 26
-0.0835359 0.0728506 -0.0495 204 26 26
0.0941563 -0.0345768 -0.0495 204 26 26
-0.0103951 -0.0393168 -0.0495 204 26 26
-0.00518275 -0.0216726 -0.0495 204 26 26
0.0204522 0.0594191 -0.0495 204 26 26
-0.0917763 -0.0897525 -0.0495 204 26 26
0.000300081 -0.0259448 -0.0495 204 26 26
0.0697588 -0.067409 -0.0495 204 26 26
0.0552137 0.0504866 -0.0495 204 26 26
-0.0963968 -0.0926447 -0.0495 204 26 26
-0.048364 0.0144134 -0.0495 204 26 26
0.0588424 -0.0679869 -0.0495 204 26 26
-0.0470595 0.0758376 -0.0495 204 26 26
0.00333922 -0.0552414 -0.0495 204 26 26
0.0920205 0.018676 -0.0495 204 26 26
-0.0697509 -0.0309225 -0.0495 204 26 26
0.00130253 -0.0548126 -0.0495 204 26 26
-0.060893 0.0504986 -0.0495 204 26 26
-0.0896963 0.0272193 -0.0495 204 26 26
-0.0607177 -0.0702036 -0.0495 204 26 26
0.0938844 0.0708679 -0.0495 204 26 26
-0.0396228 -0.00558842 -0.0495 204 26 26
0.0189264 -0.0814522 -0.0495 204 26 26
0.0839697 -0.0825993 -0.0495 204 26 26
0.0934877 0.0743963 -0.0495 204 26 26
-0.036556 0.0520847 -0.0495 204 26 26
0.0381019 -0.00275623 -0.0495 204 26 26
0.0722716 -0.0470877 -0.0495 204 26 26
0.0834765 -0.0911673 -0.0495 204 26 26
0.0886001 -0.0416134 -0.0495 204 26 26
-0.0785127 -0.0925345 -0.0495 204 26 26
0.044988 0.0949668 -0.0495 204 26 26
-0.0856977 -0.06728 -0.0495 204 26 26
0.0929132 -0.00129571 -0.0495 204 26 26
-0.0811095 0.0955209 -0.0495 204 26 26
0.0674382 0.0525317 -0.0495 204 26 26
-0.00799136 -0.0200086 -0.0495 204 26 26
-0.0487426 0.0630177 -0.0495 204 26 26
0.0031929 0.0736646 -0.0495 204 26 26
-0.0590528 -0.0464964 -0.0495 204 26 26
-0.0315415 0.0747448 -0.0495 204 26 26
0.0918963 -0.0519072 -0.0495 204 26 26
-0.0332903 0.0818475 -0.0495 204 26 26
0.0792128 0.0126479 -0.0495 204 26 26
-0.0575629 0.00954873 -0.0495 204 26 26
-0.0137604 -0.0227484 -0.0495 204 26 26
-0.0530022 0.0332931 -0.0495 204 26 26
0.066804 0.0608258 -0.0495 204 26 26
-0.0323737 0.0488075 -0.0495 204 26 26
-0.037291 0.0174814 -0.0495 204 26 26
-0.0379884 -0.0891074 -0.0495 204 26 26
-0.033353 -0.0356272 -0.0495 204 26 26
-0.061666 -0.0714602 -0.0495 204 26 26
-0.0441204 0.0482618 -0.0495 204 26 26
-0.0183584 -0.00620174 -0.0495 204 26 26
0.0942411 -0.0185305 -0.0495 204 26 26
-0.0887314 -0.0930173 -0.0495 204 26 26
0.0455763 0.0267272 -0.0495 204 26 26
0.0744472 0.0435202 -0.0495 204 26 26
0.0516163 0.0028326 -0.0495 204 26 26
-0.020837 0.0983107 -0.0495 204 26 26
-0.00916014 0.0390184 -0.0495 204 26 26
-0.0793378 -0.00303768 -0.0495 204 26 26
-0.0841437 -0.0221352 -0.0495 204 26 26
0.0557305 0.0897202 -0.0495 204 26 26
-0.0957456 0.0801957 -0.0495 204 26 26
0.041743 0.0820455 -0.0495 204 26 26
-0.00840798 0.0757103 -0.0495 204 26 26
-0.0142963 0.0619567 -0.0495 204 26 26
0.000404842 -0.0907401 -0.0495 204 26 26
0.00222544 0.0924692 -0.0495 204 26 26
-0.0523786 0.0469985 -0.0495 204 26 26
0.0655748 -0.0629001 -0.0495 204 26 26
-0.0304865 0.0980932 -0.0495 204 26 26
-0.0912876 0.0450975 -0.0495 204 26 26
0.000479184 0.0929704 -0.0495 204 26 26
-0.0764467 -0.0986523 -0.0495 204 26 26
-0.0263043 0.0463724 -0.0495 204 26 26
-0.0806367 0.00180121 -0.0495 204 26 26
0.0495362 0.0418279 -0.0495 204 26 26
-0.00332327 -0.0469847 -0.0495 204 26 26
-0.0968255 -0.0897806 -0.0495 204 26 26
0.0596377 0.0321778 -0.0495 204 26 26
0.0272595 -0.0517855 -0.0495 204 26 26
0.0522476 -0.0231345 -0.0495 204 26 26
-0.0207949 -0.0818722 -0.0495 204 26 26
0.0303609 0.0272632 -0.0495 204 26 26
0.076221 0.0499819 -0.0495 204 26 26
0.0243843 -0.0399287 -0.0495 204 26 26
-0.0625556 0.0654182 -0.0495 204 26 26
-0.0491386 0.0708623 -0.0495 204 26 26
-0.0125727 -0.0582213 -0.0495 204 26 26
-0.0984148 0.0420736 -0.0495 204 26 26
-0.036044 0.0769146 -0.0495 204 26 26
0.00911934 0.0866923 -0.0495 204 26 26
-0.0802929 0.0127258 -0.0495 204 26 26
-0.0410849 0.0126647 -0.0495 204 26 26
-0.0781898 -0.0510833 -0.0495 204 26 26
0.0857136 -0.059507 -0.0495 204 26 26
-0.0970482 -0.0235159 -0.0495 204 26 26
-0.0347329 0.00558705 -0.0495 204 26 26
0.0391242 0.00243526 -0.0495 204 26 26
0.0984397 -0.0330773 -0.0495 204 26 26
-0.041843 -0.0902181 -0.0495 204 26 26
0.0668271 -0.0242425 -0.0495 204 26 26
-0.00946756 0.0303584 -0.0495 204 26 26
0.0317267 -0.090804 -0.0495 204 26 26
0.010289 -0.0680942 -0.0495 204 26 26
-0.0531297 0.00796276 -0.0495 204 26 26
-0.00509269 0.0261897 -0.0495 204 26 26
0.0566158 -0.00520017 -0.0495 204 26 26
0.0871148 0.0983567 -0.0495 204 26 26
0.00882182 -0.00180638 -0.0495 204 26 26
-0.0943332 0.0262253 -0.0495 204 26 26
0.0471245 0.0627639 -0.0495 204 26 26
-0.0187727 -0.0960757 -0.0495 204 26 26
0.00730951 -0.00693458 -0.0495 204 26 26
-0.0689967 -0.00304675 -0.0495 204 26 26
0.0917891 0.0207406 -0.0495 204 26 26
0.00971926 -0.0980522 -0.0495 204 26 26
0.0575858 -0.0325965 -0.0495 204 26 26
0.0123142 -0.0613601 -0.0495 204 26 26
-0.0872072 -0.0504393 -0.0495 204 26 26
-0.0853497 -0.0431876 -0.0495 204 26 26
-0.00538884 -0.0879664 -0.0495 204 26 26
0.0645043 0.0500473 -0.0495 204 26 26
0.0109089 0.067714 -0.0495 204 26 26
-0.05108 0.0779526 -0.0495 204 26 26
-0.0928405 0.0510153 -0.0495 204 26 26
-0.0276132 0.0222514 -0.0495 204 26 26
0.0579212 -0.0828315 -0.0495 204 26 26
0.060794 -0.0654785 -0.0495 204 26 26
0.0541332 0.065695 -0.0495 204 26 26
0.0419628 -0.0304324 -0.0495 204 26 26
0.0283941 0.0815003 -0.0495 204 26 26
0.00735265 0.0927102 -0.0495 204 26 26
0.0991525 -0.0775103 -0.0495 204 26 26
-0.0623685 -0.0553859 -0.0495 204 26 26
-0.0540726 -0.000833931 -0.0495 204 26 26
-0.0945638 -0.00435191 -0.0495 204 26 26
0.0117219 -0.000163555 -0.0495 204 26 26
-0.0317296 0.0483922 -0.0495 204 26 26
0.0706732 0.0232403 -0.0495 204 26 26
0.0318834 -0.0745189 -0.0495 204 26 26
0.00120113 0.0837488 -0.0495 204 26 26
0.0488128 0.0100377 -0.0495 204 26 26
0.0846588 0.0573207 -0.0495 204 26 26
-0.0314499 0.0175912 -0.0495 204 26 26
0.0988159 0.00456069 -0.0495 204 26 26
0.0965208 0.0446365 -0.0495 204 26 26
0.0880222 0.0591323 -0.0495 204 26 26
-0.0754017 0.0848831 -0.0495 204 26 26
0.096767 -0.0570193 -0.0495 204 26 26
0.00870965 -0.0296491 0.0495 204 26 26
-0.0358307 -0.0137976 0.0495 204 26 26
0.00807239 0.0727191 0.0495 204 26 26
-0.0213842 -0.0042441 0.0495 204 26 26
-0.0542323 -0.0406287 0.0495 204 26 26
0.0642673 -0.0624458 0.0495 204 26 26
-0.0131181 0.0877486 0.0495 204 26 26
-0.0197656 -0.0648627 0.0495 204 26 26
0.00766129 -0.0982174 0.0495 204 26 26
0.0564257 0.0092193 0.0495 204 26 26
-0.0567919 0.0401981 0.0495 204 26 26
0.0251717 0.0242732 0.0495 204 26 26
0.0459195 -0.0110048 0.0495 204 26 26
0.00818499 0.0427554 0.0495 204 26 26
-0.0925102 -0.0333586 0.0495 204 26 26
0.042603 -0.0926023 0.0495 204 26 26
-0.0407874 -0.0586696 0.0495 204 26 26
-0.00271647 0.0125882 0.0495 204 26 26
0.01037 -0.0220552 0.0495 204 26 26
-0.0707842 0.0897185 0.0495 204 26 26
-0.0466407 0.0107656 0.0495 204 26 26
0.00284989 0.00412874 0.0495 204 26 26
-0.0751516 0.0300449 0.0495 204 26 26
0.0230807 0.0721671 0.0495 204 26 26
-0.00717514 0.0489211 0.0495 204 26 26
-0.0251935 -0.0413359 0.0495 204 26 26
0.0759332 -0.0720883 0.0495 204 26 26
0.00510917 -0.0903877 0.0495 204 26 26
0.0520664 -0.0211295 0.0495 204 26 26
-0.0484718 -0.0041574 0.0495 204 26 26
-0.0960347 -0.0775983 0.0495 204 26 26
-0.081951 -0.0993873 0.0495 204 26 26
-0.0544869 0.0473096 0.0495 204 26 26
-0.0252051 0.0960707 0.0495 204 26 26
-0.0117489 0.00793773 0.0495 204 26 26
0.02062 -0.0442959 0.0495 204 26 26
-0.0157724 -0.0361961 0.0495 204 26 26
0.0609311 0.029069 0.0495 204 26 26
-0.0940558 -0.0446969 0.0495 204 26 26
-0.0858889 -0.06708 0.0495 204 26 26
-0.0708208 -0.0781246 0.0495 204 26 26
-0.0373825 0.00266515 0.0495 204 26 26
-0.0912387 0.00251406 0.0495 204 26 26
0.0637004 0.0459665 0.0495 204 26 26
0.0787549 -0.0441237 0.0495 204 26 26
0.0158937 -0.061913 0.0495 204 26 26
-0.0626929 0.0870948 0.0495 204 26 26
-0.0225199 0.00335094 0.0495 204 26 26
-0.0149529 -0.0352128 0.0495 204 26 26
-0.0702938 -0.00528201 0.0495 204 26 26
0.0376092 -0.0723679 0.0495 204 26 26
0.085131 -0.0567061 0.0495 204 26 26
-0.0299044 0.0505861 0.0495 204 26 26
0.0843074 0.085641 0.0495 204 26 26
-0.0443713 -0.00467902 0.0495 204 26 26
-0.0856347 -0.0810993 0.0495 204 26 26
-0.0362627 0.0119701 0.0495 204 26 26
0.0142284 0.0924502 0.0495 204 26 26
-0.0426925 -0.0487124 0.0495 204 26 26
-0.0327817 -0.0120455 0.0495 204 26 26
0.0622521 0.045882 0.0495 204 26 26
-0.0382408 -0.0725503 0.0495 204 26 26
-0.0213542 -0.0524975 0.0495 204 26 26
-0.0761946 -0.0880785 0.0495 204 26 26
-0.0120504 -0.0201432 0.0495 204 26 26
-0.0515946 -0.0927599 0.0495 204 26 26
0.00220895 0.0210964 0.0495 204 26 26
-0.000564609 0.00147992 0.0495 204 26 26
0.0755888 0.0704672 0.0495 204 26 26
0.0428148 -0.0559069 0.0495 204 26 26
-0.0636591 -0.0674538 0.0495 204 26 26
-0.0252996 0.0253777 0.0495 204 26 26
-0.0744866 0.0930348 0.0495 204 26 26
0.00551219 0.0425602 0.0495 204 26 26
0.0188504 -0.0541979 0.0495 204 26 26
-0.0435731 0.0786366 0.0495 204 26 26
-0.0859525 0.00265994 0.0495 204 26 26
-0.0472784 -0.0332873 0.0495 204 26 26
0.0764834 -0.0644048 0.0495 204 26 26
-0.090515 0.0340226 0.0495 204 26 26
-0.0100846 0.069033 0.0495 204 26 26
0.0155145 0.0811025 0.0495 204 26 26
0.0562884 0.0340216 0.0495 204 26 26
-0.0385937 -0.0551506 0.0495 204 26 26
-0.0213561 -0.048323 0.0495 204 26 26
-0.0560878 -0.0908688 0.0495 204 26 26
0.0198952 -0.0400142 0.0495 204 26 26
0.0886674 0.00723576 0.0495 204 26 26
0.079336 0.0989892 0.0495 204 26 26
0.086293 -0.098151 0.0495 204 26 26
0.0623923 -0.0558977 0.0495 204 26 26
0.0371777 -0.0779147 0.0495 204 26 26
-0.0342766 0.0393585 0.0495 204 26 26
-0.0789444 0.0696498 0.0495 204 26 26
-0.060602 -0.0933272 0.0495 204 26 26
0.0566876 0.0297029 0.0495 204 26 26
-0.0358678 -0.0401524 0.0495 204 26 26
-0.0422912 0.03609 0.0495 204 26 26
-0.00385288 0.0653096 0.0495 204 26 26
-0.0532948 0.0589553 0.0495 204 26 26
0.0733781 0.0126213 0.0495 204 26 26
-0.0500684 0.00915595 0.0495 204 26 26
-0.0539123 0.0684624 0.0495 204 26 26
-0.0331667 -0.0736559 0.0495 204 26 26
-0.0909786 0.0626203 0.0495 204 26 26
-0.0624797 0.000315438 0.0495 204 26 26
0.000120071 -0.0226633 0.0495 204 26 26
-0.0758822 -0.0650974 0.0495 204 26 26
-0.0670286 -0.0705402 0.0495 204 26 26
-0.0307956 -0.084713 0.0495 204 26 26
0.0426254 0.0582645 0.0495 204 26 26
-0.0329615 0.0970024 0.0495 204 26 26
0.0789886 0.0403875 0.0495 204 26 26
-0.0815362 0.0105147 0.0495 204 26 26
-0.0166244 -0.0430607 0.0495 204 26 26
0.0462695 0.0452895 0.0495 204 26 26
0.00636131 -0.0612306 0.0495 204 26 26
0.0856343 0.0641014 0.0495 204 26 26
-0.0490376 -0.00498604 0.0495 204 26 26
-0.0918394 -0.0825743 0.0495 204 26 26
-0.00927399 -0.051874 0.0495 204 26 26
-0.0500423 0.079064 0.0495 204 26 26
0.084774 0.0118052 0.0495 204 26 26
-0.00346776 0.0876861 0.0495 204 26 26
-0.0080619 -0.0595444 0.0495 204 26 26
0.0452327 0.0317578 0.0495 204 26 26
-0.0234702 -0.0769778 0.0495 204 26 26
-0.0112367 0.00679443 0.0495 204 26 26
0.0937289 0.0428006 0.0495 204 26 26
-0.0678547 0.0137106 0.0495 204 26 26
-0.0184772 -0.0247467 0.0495 204 26 26
-0.076248 0.0547732 0.0495 204 26 26
0.0125137 0.0183942 0.0495 204 26 26
-0.0670942 0.097031 0.0495 204 26 26
0.0299254 0.00822501 0.0495 204 26 26
-0.044488 -0.0141169 0.0495 204 26 26
-0.0578039 0.0603496 0.0495 204 26 26
0.0334924 -0.05961 0.0495 204 26 26
0.00615875 -0.0619158 0.0495 204 26 26
0.00939658 0.0256539 0.0495 204 26 26
0.0532567 -0.0371372 0.0495 204 26 26
-0.0522374 -0.0385744 0.0495 204 26 26
-0.0644893 -0.0750296 0.0495 204 26 26
0.0408022 -0.0177077 0.0495 204 26 26
-0.0455966 0.00510159 0.0495 204 26 26
0.0587307 0.0698623 0.0495 204 26 26
-0.0980093 0.0338735 0.0495 204 26 26
0.0181055 -0.0180892 0.0495 204 26 26
-0.0758446 0.0728046 0.0495 204 26 26
-0.00492558 -0.0945373 0.0495 204 26 26
-0.0804149 0.0911141 0.0495 204 26 26
0.016418 0.0565197 0.0495 204 26 26
-0.0455746 -0.00921823 0.0495 204 26 26
-0.0137583 -0.0220423 0.0495 204 26 26
0.0018299 -0.0201818 0.0495 204 26 26
-0.071153 -0.0680018 0.0495 204 26 26
0.0345372 0.0766126 0.0495 204 26 26
0.0220263 -0.0929574 0.0495 204 26 26
0.0340237 0.00631225 0.0495 204 26 26
-0.0326592 -0.0358663 0.0495 204 26 26
0.00767169 -0.0323895 0.0495 204 26 26
0.0485882 -0.0663712 0.0495 204 26 26
0.0496546 0.0155244 0.0495 204 26 26
0.0237214 0.0244488 0.0495 204 26 26
0.0909479 -0.0115728 0.0495 204 26 26
0.0795284 0.075818 0.0495 204 26 26
-0.0190547 0.052605 0.0495 204 26 26
-0.0578225 -0.0896313 0.0495 204 26 26
0.0432178 0.0333338 0.0495 204 26 26
-0.0187857 0.094488 0.0495 204 26 26
0.0196975 0.0646929 0.0495 204 26 26
-0.0685369 0.0525504 0.0495 204 26 26
-0.0378996 0.0774162 0.0495 204 26 26
-0.0182272 -0.0120741 0.0495 204 26 26
-0.00676084 0.0315511 0.0495 204 26 26
0.00644455 -0.0753046 0.0495 204 26 26
-0.0615583 -0.0545963 0.0495 204 26 26
-0.0828427 0.0446973 0.0495 204 26 26
-0.00916131 0.008952 0.0495 204 26 26
0.096107 0.0167992 0.0495 204 26 26
-0.0957808 -0.0716959 0.0495 204 26 26
-0.084958 0.0681337 0.0495 204 26 26
0.0952714 -0.0937118 0.0495 204 26 26
-0.0946402 -0.0812529 0.0495 204 26 26
0.0244964 -0.045993 0.0495 204 26 26
-0.00968696 -0.0668707 0.0495 204 26 26
0.091021 0.00483183 0.0495 204 26 26
0.0435032 -0.0095566 0.0495 204 26 26
-0.0499553 -0.019367 0.0495 204 26 26
-0.0412778 0.0442048 0.0495 204 26 26
-0.0536949 -0.0278719 0.0495 204 26 26
-0.0591124 0.0806278 0.0495 204 26 26
-0.0971469 -0.0980866 0.0495 204 26 26
-0.0876009 0.0270352 0.0495 204 26 26
-0.0589119 0.0329834 0.0495 204 26 26
-0.0352746 -0.0924889 0.0495 204 26 26
-0.0167554 0.0197376 0.0495 204 26 26
0.0912523 0.0149432 0.0495 204 26 26
-0.0226679 0.050516 0.0495 204 26 26
-0.0955111 -0.0542539 0.0495 204 26 26
0.0467385 0.05411 0.0495 204 26 26
-0.024028 -0.0584212 0.0495 204 26 26
-0.0217426 -0.0434957 0.0495 204 26 26
0.0297415 0.0468823 0.0495 204 26 26
-0.0503239 0.0785143 0.0495 204 26 26
0.0157921 0.0720185 0.0495 204 26 26
0.070224 0.0533669 0.0495 204 26 26
0.0760552 -0.0483881 0.0495 204 26 26
-0.0729231 -0.0285415 0.0495 204 26 26
0.0206504 0.0289979 0.0495 204 26 26
0.013442 -0.0709509 0.0495 204 26 26
0.0919065 -0.0769267 0.0495 204 26 26
0.0296573 0.072476 0.0495 204 26 26
-0.00315978 0.0722761 0.0495 204 26 26
-0.0114911 0.0835794 0.0495 204 26 26
0.0847554 -0.0204259 0.0495 204 26 26
-0.0354124 -0.00930093 0.0495 204 26 26
-0.0783685 0.0604081 0.0495 204 26 26
-0.0826756 0.0595228 0.0495 204 26 26
0.0713843 0.0721539 0.0495 204 26 26
-0.0272974 -0.0416377 0.0495 204 26 26
-0.0547531 -0.084718 0.0495 204 26 26
0.0954732 -0.0727317 0.0495 204 26 26
-0.0736194 -0.00463692 0.0495 204 26 26
0.0150263 -0.0754815 0.0495 204 26 26
0.00687087 0.0754317 0.0495 204 26 26
0.0926506 -0.0742095 0.0495 204 26 26
0.0902124 0.0929389 0.0495 204 26 26
0.0267377 -0.0515609 0.0495 204 26 26
0.0911846 0.00163452 0.0495 204 26 26
-0.0175793 0.0891448 0.0495 204 26 26
-0.0091575 0.0244058 0.0495 204 26 26
0.0156048 -0.092373 0.0495 204 26 26
0.056336 0.0376597 0.0495 204 26 26
-0.0312002 -0.000222379 0.0495 204 26 26
-0.0319345 -0.0993552 0.0495 204 26 26
-0.0265733 -0.0294486 0.0495 204 26 26
-0.0844577 -0.0866336 0.0495 204 26 26
0.0257762 0.0579508 0.0495 204 26 26
0.0976769 -0.0214494 0.0495 204 26 26
0.0580933 -0.084214 0.0495 204 26 26
-0.076884 -0.0749834 0.0495 204 26 26
-0.00434114 -0.0286597 0.0495 204 26 26
0.0895529 -0.0202895 0.0495 204 26 26
0.0667038 -0.0204984 0.0495 204 26 26
-0.0648424 0.00156716 0.0495 204 26 26
0.0325661 -0.044803 0.0495 204 26 26
0.0374025 -0.00392012 0.0495 204 26 26
0.057236 -0.00918853 0.0495 204 26 26
-0.0475427 -0.0464242 0.0495 204 26 26
-0.0938108 0.0540641 0.0495 204 26 26
0.0607492 -0.0570326 0.0495 204 26 26
-0.0963085 9.75196e-05 0.0495 204 26 26
0.0845449 0.0241323 0.0495 204 26 26
-0.084667 0.0602386 0.0495 204 26 26
-0.0656121 0.0991348 0.0495 204 26 26
0.0793113 0.0550815 0.0495 204 26 26
-0.0849216 0.0549817 0.0495 204 26 26
0.0352051 -0.0892128 0.0495 204 26 26
0.064685 0.0377968 0.0495 204 26 26
-0.0350802 0.0641619 0.0495 204 26 26
0.0187671 -0.0187753 0.0495 204 26 26
0.0327467 0.0227317 0.0495 204 26 26
0.0414644 -0.0116742 0.0495 204 26 26
-0.0428802 0.0648206 0.0495 204 26 26
0.0881524 0.0528604 0.0495 204 26 26
0.0636194 0.0339621 0.0495 204 26 26
-0.0938318 0.0876346 0.0495 204 26 26
-0.0243466 -0.0768935 0.0495 204 26 26
0.0792103 -0.0903572 0.0495 204 26 26
0.0491698 -0.0950658 0.0495 204 26 26
-0.0561449 0.0243779 0.0495 204 26 26
-0.0157098 -0.0609717 0.0495 204 26 26
-0.0626807 0.0112178 0.0495 204 26 26
-0.0983635 -0.00374926 0.0495 204 26 26
-0.0292637 -0.059226 0.0495 204 26 26
-0.0133602 -0.0652681 0.0495 204 26 26
0.0360841 0.0209929 0.0495 204 26 26
0.0917718 0.0772421 0.0495 204 26 26
0.00494462 0.0159042 0.0495 204 26 26
0.00692154 -0.0505605 0.0495 204 26 26
0.0764236 -0.0292632 0.0495 204 26 26
0.00991834 -0.0865703 0.0495 204 26 26
0.0324664 0.015709 0.0495 204 26 26
-0.0434386 0.0101545 0.0495 204 26 26
-0.00583435 -0.0678751 0.0495 204 26 26
-0.0366452 -0.0615996 0.0495 204 26 26
0.0256036 0.0666404 0.0495 204 26 26
-0.0747758 0.0781364 0.0495 204 26 26
-0.0248517 0.0543026 0.0495 204 26 26
-0.0876967 -0.0988085 0.0495 204 26 26
0.00325107 0.0984888 0.0495 204 26 26
0.00871352 -0.0928414 0.0495 204 26 26
-0.0375097 -0.0264131 0.0495 204 26 26
-0.0026498 0.0489861 0.0495 204 26 26
-0.0751801 -0.0521107 0.0495 204 26 26
0.0156429 -0.0312108 0.0495 204 26 26
-0.0474508 -0.00472049 0.0495 204 26 26
0.0184569 -0.0228173 0.0495 204 26 26
0.0540715 0.050493 0.0495 204 26 26
0.0428015 0.00825901 0.0495 204 26 26
0.0410648 -0.0722236 0.0495 204 26 26
-0.0451727 -0.0376078 0.0495 204 26 26
-0.0754993 0.0718971 0.0495 204 26 26
0.0808832 -0.0937573 0.0495 204 26 26
0.0937415 -0.0461501 0.0495 204 26 26
0.0643356 -0.00569191 0.0495 204 26 26
-0.0765867 0.0714126 0.0495 204 26 26
-0.0494871 -0.0181103 0.0495 204 26 26
-0.0902035 -0.0498456 0.0495 204 26 26
-0.0645608 0.028336 0.0495 204 26 26
0.0908933 -0.0820915 0.0495 204 26 26
-0.0288831 0.00739983 0.0495 204 26 26
-0.0921561 0.0222659 0.0495 204 26 26
-0.0491161 0.0495133 0.0495 204 26 26
-0.0987447 -0.0686274 0.0495 204 26 26
-0.0362647 0.00821927 0.0495 204 26 26
-0.0343966 -0.0839426 0.0495 204 26 26
0.00531803 0.00805368 0.0495 204 26 26
0.058991 0.0972276 0.0495 204 26 26
-0.0103393 0.0170118 0.0495 204 26 26
0.062883 0.0628812 0.0495 204 26 26
-0.0342279 0.000361657 0.0495 204 26 26
0.0610735 0.053584 0.0495 204 26 26
0.0625623 0.0189909 0.0495 204 26 26
-0.0719373 0.013479 0.0495 204 26 26
-0.00392229 0.025337 0.0495 204 26 26
0.040905 0.0979867 0.0495 204 26 26
-0.0447956 -0.0164589 0.0495 204 26 26
0.00853864 -0.0591831 0.0495 204 26 26
0.0850868 -0.0255288 0.0495 204 26 26
-0.0258956 0.0343877 0.0495 204 26 26
-0.0477725 -0.021769 0.0495 204 26 26
0.0435179 -0.0731099 0.0495 204 26 26
0.0590204 -0.0113867 0.0495 204 26 26
0.0219861 0.0958251 0.0495 204 26 26
-0.0405802 -0.0449484 0.0495 204 26 26
0.0127751 -0.0590126 0.0495 204 26 26
-0.00588036 0.0654474 0.0495 204 26 26
-0.051943 0.0575855 0.0495 204 26 26
-0.0909757 -0.0267892 0.0495 204 26 26
0.0363078 -0.0858419 0.0495 204 26 26
-0.0489572 -0.0183146 0.0495 204 26 26
0.0131506 -0.0337423 0.0495 204 26 26
-0.0679894 -0.0907812 0.0495 204 26 26
-0.0247047 0.0420165 0.0495 204 26 26
0.0356548 0.0241753 0.0495 204 26 26
0.0757179 0.0946369 0.0495 204 26 26
-0.00536573 0.00519196 0.0495 204 26 26
-0.0404618 -0.0206854 0.0495 204 26 26
0.0381602 0.000730077 0.0495 204 26 26
0.0347324 0.0913116 0.0495 204 26 26
0.0658906 -0.039415 0.0495 204 26 26
0.0096939 0.0987671 0.0495 204 26 26
0.039405 0.0883084 0.0495 204 26 26
-0.0374168 0.088999 0.0495 204 26 26
0.0372954 -0.0165686 0.0495 204 26 26
0.0827293 0.0889799 0.0495 204 26 26
0.0589549 -0.0422407 0.0495 204 26 26
0.095472 0.0784461 0.0495 204 26 26
0.069348 0.00818691 0.0495 204 26 26
0.0901326 -0.0944477 0.0495 204 26 26
0.0345754 0.00343948 0.0495 204 26 26
0.0749655 -0.0060604 0.0495 204 26 26
-0.0523008 0.0187475 0.0495 204 26 26
-0.0342541 0.000164974 0.0495 204 26 26
0.0288426 0.0446805 0.0495 204 26 26
-0.0617057 0.0374696 0.0495 204 26 26
0.0451707 0.0948001 0.0495 204 26 26
0.000270754 -0.0660728 0.0495 204 26 26
-0.0350504 0.0866807 0.0495 204 26 26
0.0973 0.0698074 0.0495 204 26 26
-0.0397277 0.0388912 0.0495 204 26 26
0.0193215 0.0602958 0.0495 204 26 26
0.0844104 0.00379851 0.0495 204 26 26
0.0211398 -0.0962435 0.0495 204 26 26
-0.0720857 -0.0049481 0.0495 204 26 26
-0.0655934 -0.0630386 0.0495 204 26 26
-0.0858128 0.0383861 0.0495 204 26 26
0.0727135 -0.000518723 0.0495 204 26 26
-0.0790263 -0.0918078 0.0495 204 26 26
0.0568874 -0.0800159 0.0495 204 26 26
-0.0759514 0.00738271 0.0495 204 26 26
-0.098334 0.0925861 0.0495 204 26 26
-0.00323213 -0.0752785 0.0495 204 26 26
-0.00188004 0.00916609 0.0495 204 26 26
0.00512598 0.0550813 0.0495 204 26 26
0.0868918 -0.0912042 0.0495 204 26 26
-0.0111343 -0.0228507 0.0495 204 26 26
0.0437549 0.0792936 0.0495 204 26 26
0.0914622 0.00498969 0.0495 204 26 26
0.0374538 0.0143059 0.0495 204 26 26
0.0796054 -0.0464625 0.0495 204 26 26
0.0514637 0.094755 0.0495 204 26 26
0.019655 -0.0724373 0.0495 204 26 26
0.0791559 0.013706 0.0495 204 26 26
-0.0995 0.00784859 -0.0143377 204 26 26
-0.0995 -0.0406935 -0.00770951 204 26 26
-0.0995 -0.0841148 -0.0363558 204 26 26
-0.0995 0.0132112 0.0336774 204 26 26
-0.0995 0.0256964 -0.00274015 204 26 26
-0.0995 0.0584403 0.00989002 204 26 26
-0.0995 0.0654703 -0.0344924 204 26 26
-0.0995 -0.0720737 0.021631 204 26 26
-0.0995 -0.00920475 -0.0442121 204 26 26
-0.0995 -0.0713184 0.0393806 204 26 26
-0.0995 -0.0534425 -0.00142091 204 26 26
-0.0995 0.0609242 -0.0158942 204 26 26
-0.0995 0.06223 -0.025824 204 26 26
-0.0995 0.0738097 -0.048173 204 26 26
-0.0995 0.0945571 -0.00523286 204 26 26
-0.0995 -0.0456906 -0.0107759 204 26 26
-0.0995 -0.0283448 -0.0485617 204 26 26
-0.0995 -0.0123286 -0.0417336 204 26 26
-0.0995 0.00757612 -0.00659089 204 26 26
-0.0995 0.0420141 0.0222255 204 26 26
-0.0995 0.0295847 0.0220618 204 26 26
-0.0995 -0.000901948 -0.0204977 204 26 26
-0.0995 0.0135388 0.0438142 204 26 26
-0.0995 -0.0153502 -0.0469521 204 26 26
-0.0995 -0.0260496 -0.0401481 204 26 26
-0.0995 -0.000805111 -0.0250872 204 26 26
-0.0995 0.0802448 -0.0307262 204 26 26
-0.0995 0.0582909 0.0362297 204 26 26
-0.0995 0.0467865 0.0340919 204 26 26
-0.0995 -0.0754445 0.0418639 204 26 26
-0.0995 -0.0149948 -0.0192961 204 26 26
-0.0995 0.031376 -0.0181232 204 26 26
-0.0995 -0.0121364 0.0171458 204 26 26
-0.0995 0.0601993 0.0409817 204 26 26
-0.0995 -0.0854697 0.0199718 204 26 26
-0.0995 0.0962133 0.0371856 204 26 26
-0.0995 0.0397318 0.0221758 204 26 26
-0.0995 0.0110365 0.0387197 204 26 26
-0.0995 -0.0934756 0.0142279 204 26 26
-0.0995 -0.0540524 -0.0248493 204 26 26
-0.0995 0.0486596 0.00460639 204 26 26
-0.0995 -0.00722731 -0.01515 204 26 26
-0.0995 0.0660098 0.0192876 204 26 26
-0.0995 -0.0509826 -0.0241869 204 26 26
-0.0995 -0.0031594 0.0359391 204 26 26
-0.0995 -0.0155858 0.022838 204 26 26
-0.0995 0.0580594 -0.0373763 204 26 26
-0.0995 -0.0948911 -0.0361511 204 26 26
-0.0995 -0.0108737 -0.0274442 204 26 26
-0.0995 -0.059634 0.0451776 204 26 26
-0.0995 0.0729658 -0.015135 204 26 26
-0.0995 0.0260287 0.014083 204 26 26
-0.0995 0.0126052 0.0427514 204 26 26
-0.0995 0.0193466 0.0408185 204 26 26
-0.0995 -0.017804 0.0346291 204 26 26
-0.0995 -0.0657591 -0.0455973 204 26 26
-0.0995 -0.0791062 0.0142346 204 26 26
-0.0995 0.0912988 0.0491914 204 26 26
-0.0995 -0.0208348 -0.0161962 204 26 26
-0.0995 0.0428799 -0.0187896 204 26 26
-0.0995 0.0769901 -0.0289852 204 26 26
-0.0995 0.0117057 -0.0150003 204 26 26
-0.0995 -0.0209432 0.0420221 204 26 26
-0.0995 -0.0445322 0.0227909 204 26 26
-0.0995 -0.00701775 0.00588218 204 26 26
-0.0995 -0.0211645 -0.0372123 204 26 26
-0.0995 0.0245724 -0.0483631 204 26 26
-0.0995 -0.0806748 -0.0167382 204 26 26
-0.0995 0.0225179 -0.0196246 204 26 26
-0.0995 -0.0577666 0.0297932 204 26 26
-0.0995 0.0124971 0.0386913 204 26 26
-0.0995 0.0305518 -0.00952488 204 26 26
-0.0995 0.0617072 -0.0165623 204 26 26
-0.0995 -0.0573205 0.036003 204 26 26
-0.0995 -0.030693 0.0255194 204 26 26
-0.0995 0.0983339 0.039297 204 26 26
-0.0995 0.0775353 0.0180869 204 26 26
-0.0995 -0.0889106 -0.0166686 204 26 26
-0.0995 -0.0511726 0.0299007 204 26 26
-0.0995 0.00639423 -0.019126 204 26 26
-0.0995 -0.0441723 0.0454195 204 26 26
-0.0995 -0.00197593 -0.00601971 204 26 26
-0.0995 -0.0230148 0.0401034 204 26 26
-0.0995 -0.0663037 0.0357994 204 26 26
-0.0995 -0.0921495 0.0232595 204 26 26
-0.0995 -0.0343885 0.0480555 204 26 26
-0.0995 0.0575089 0.0386305 204 26 26
-0.0995 -0.0216262 0.0029041 204 26 26
-0.0995 -0.0757824 -0.00651304 204 26 26
-0.0995 0.0892543 0.0254996 204 26 26
-0.0995 0.0900651 -0.0440292 204 26 26
-0.0995 -0.0264668 -0.029851 204 26 26
-0.0995 -0.0847686 0.000997311 204 26 26
-0.0995 -0.034335 0.0319925 204 26 26
-0.0995 0.00217383 -0.037017 204 26 26
-0.0995 0.0201652 0.00624023 204 26 26
-0.0995 0.0761659 -0.0253368 204 26 26
-0.0995 0.0649354 0.0249632 204 26 26
-0.0995 0.0380595 0.0196908 204 26 26
-0.0995 -0.0394062 -0.0333044 204 26 26
-0.0995 -0.0128311 0.0326964 204 26 26
-0.0995 0.0605959 0.0338363 204 26 26
-0.0995 0.0535977 0.0300026 204 26 26
-0.0995 0.091556 -0.0395252 204 26 26
-0.0995 -0.0327393 0.00750025 204 26 26
-0.0995 0.0407935 -0.0134745 204 26 26
-0.0995 -0.0728503 0.0265628 204 26 26
-0.0995 -0.095414 -0.010275 204 26 26
-0.0995 -0.000205289 -0.0157922 204 26 26
-0.0995 -0.006125 0.0150272 204 26 26
-0.0995 0.0590081 0.0281244 204 26 26
-0.0995 -0.07873 -0.00353211 204 26 26
-0.0995 -0.00346284 0.0151172 204 26 26
-0.0995 -0.0518974 0.0379851 204 26 26
-0.0995 -0.0936432 0.0390268 204 26 26
-0.0995 -0.0662135 0.0489992 204 26 26
-0.0995 0.0824696 -0.0454605 204 26 26
-0.0995 0.034752 -0.0277092 204 26 26
-0.0995 -0.0927221 0.0345979 204 26 26
-0.0995 0.0589551 -0.0372573 204 26 26
-0.0995 -0.0342864 0.0254753 204 26 26
-0.0995 -0.0628708 0.0319146 204 26 26
-0.0995 -0.0730522 -0.0066463 204 26 26
-0.0995 -0.081796 -0.0407038 204 26 26
-0.0995 -0.0723342 0.0482338 204 26 26
-0.0995 -0.0321375 0.00235091 204 26 26
-0.0995 0.014704 0.0308476 204 26 26
-0.0995 -0.097501 0.00605331 204 26 26
-0.0995 0.0442322 -0.0412529 204 26 26
-0.0995 0.028673 -0.0431228 204 26 26
-0.0995 0.0808497 0.00198785 204 26 26
-0.0995 -0.098641 0.0108075 204 26 26
-0.0995 0.0509639 -0.0360254 204 26 26
-0.0995 -0.0637754 -0.0191873 204 26 26
-0.0995 0.056334 -0.0336457 204 26 26
-0.0995 0.0316149 -0.00417891 204 26 26
-0.0995 0.0307037 0.0180493 204 26 26
-0.0995 -0.0395033 0.0240387 204 26 26
-0.0995 0.0887363 -0.0419217 204 26 26
-0.0995 -0.0414395 -0.0324885 204 26 26
-0.0995 0.0604524 -0.0336879 204 26 26
-0.0995 -0.0481839 -0.02243 204 26 26
-0.0995 0.0805457 0.0287014 204 26 26
-0.0995 -0.0889039 0.0435645 204 26 26
-0.0995 -0.0380853 0.00311848 204 26 26
-0.0995 0.030058 -0.0389458 204 26 26
-0.0995 -0.0698128 -0.0200602 204 26 26
-0.0995 0.0848977 -0.00241831 204 26 26
-0.0995 0.0667036 -0.0216644 204 26 26
-0.0995 -0.00400013 -0.0253907 204 26 26
-0.0995 -0.0412035 0.00669829 204 26 26
-0.0995 -0.00878418 -0.0461927 204 26 26
-0.0995 -0.0465199 -0.0223757 204 26 26
-0.0995 -0.0249422 0.0417373 204 26 26
-0.0995 -0.0031509 -0.0250099 204 26 26
-0.0995 0.00202198 -0.00509732 204 26 26
-0.0995 0.0783201 0.0147104 204 26 26
-0.0995 -0.0443814 0.00299295 204 26 26
-0.0995 0.0632574 0.000361067 204 26 26
-0.0995 0.0239594 -0.0341696 204 26 26
-0.0995 -0.0370492 -0.00403852 204 26 26
-0.0995 -0.0850967 -0.00661745 204 26 26
-0.0995 0.081394 0.0437709 204 26 26
-0.0995 0.028147 -0.0393307 204 26 26
-0.0995 0.0720939 0.0426273 204 26 26
-0.0995 -0.0418758 0.0179602 204 26 26
-0.0995 0.00617425 -0.0146887 204 26 26
-0.0995 -0.0191303 -0.00857399 204 26 26
-0.0995 0.0926866 -0.035581 204 26 26
-0.0995 -0.0342997 0.0108507 204 26 26
-0.0995 -0.034806 0.0180537 204 26 26
-0.0995 0.0335416 0.034394 204 26 26
-0.0995 -0.0124232 0.0384086 204 26 26
-0.0995 -0.0935725 -0.0140808 204 26 26
-0.0995 0.0534325 -0.00825242 204 26 26
-0.0995 0.080521 0.017143 204 26 26
-0.0995 -0.0367498 0.0128171 204 26 26
-0.0995 0.0674909 -0.0302142 204 26 26
-0.0995 0.00954752 -0.000700785 204 26 26
-0.0995 0.0855386 -0.00775294 204 26 26
-0.0995 -0.0941479 0.0295541 204 26 26
-0.0995 -0.0578701 0.0239487 204 26 26
-0.0995 0.0385797 0.0235119 204 26 26
-0.0995 0.0809631 0.0423896 204 26 26
-0.0995 0.0426298 -0.0139121 204 26 26
-0.0995 0.0701198 -0.0125872 204 26 26
-0.0995 -0.0868766 -0.0415773 204 26 26
-0.0995 -0.0988986 -0.0319569 204 26 26
-0.0995 0.00155876 0.00744546 204 26 26
-0.0995 -0.034149 0.00300524 204 26 26
-0.0995 0.00494944 -0.0306196 204 26 26
-0.0995 0.0565568 -0.041669 204 26 26
-0.0995 -0.0585725 0.0250489 204 26 26
-0.0995 0.03845 0.0170249 204 26 26
-0.0995 -0.00760275 -0.0244283 204 26 26
-0.0995 0.0548565 -0.0268475 204 26 26
-0.0995 -0.0149571 0.034244 204 26 26
0.0995 -0.0868341 -0.00961483 204 26 26
0.0995 -0.0408516 -0.0278444 204 26 26
0.0995 0.0732125 0.033226 204 26 26
0.0995 0.000939998 0.0462248 204 26 26
0.0995 0.0430452 -0.0326642 204 26 26
0.0995 -0.0157392 -0.0375608 204 26 26
0.0995 -0.0643854 0.0484454 204 26 26
0.0995 -0.0978086 0.0249686 204 26 26
0.0995 0.0343465 0.0408501 204 26 26
0.0995 -0.0971286 0.0245543 204 26 26
0.0995 0.0612801 -0.00270484 204 26 26
0.0995 0.00806676 -0.00316728 204 26 26
0.0995 -0.089874 -0.0079215 204 26 26
0.0995 -0.061613 -0.0309945 204 26 26
0.0995 -0.0127296 0.0361374 204 26 26
0.0995 -0.0667848 -0.0155619 204 26 26
0.0995 -0.0463957 -0.0239619 204 26 26
0.0995 0.00240012 -0.0100739 204 26 26
0.0995 -0.0447964 -0.0280318 204 26 26
0.0995 -0.0586146 0.0361424 204 26 26
0.0995 -0.0174418 0.0241154 204 26 26
0.0995 0.0930813 0.00242845 204 26 26
0.0995 -0.0402551 0.0287873 204 26 26
0.0995 0.0576501 -0.00972917 204 26 26
0.0995 -0.0117127 0.0487628 204 26 26
0.0995 -0.0736289 -0.0264772 204 26 26
0.0995 0.029178 -0.00474063 204 26 26
0.0995 0.0573029 0.0446434 204 26 26
0.0995 0.0545682 -0.0248675 204 26 26
0.0995 -0.0794789 -0.0359161 204 26 26
0.0995 -0.0741424 0.0129975 204 26 26
0.0995 0.0304359 -0.0285688 204 26 26
0.0995 0.0762055 0.0370006 204 26 26
0.0995 0.027569 0.0423187 204 26 26
0.0995 0.0761915 -0.0050282 204 26 26
0.0995 0.0242452 -0.0484987 204 26 26
0.0995 0.0838025 -0.0314797 204 26 26
0.0995 0.0463954 0.000539741 204 26 26
0.0995 -0.0665122 -0.00387419 204 26 26
0.0995 0.0453224 0.0136096 204 26 26
0.0995 -0.0957086 -0.00388128 204 26 26
0.0995 0.0937381 0.0175855 204 26 26
0.0995 0.0110043 -0.0415539 204 26 26
0.0995 0.0964967 -0.0278226 204 26 26
0.0995 0.0246054 -0.0105803 204 26 26
0.0995 0.0424738 -0.00569986 204 26 26
0.0995 0.000896617 -0.018512 204 26 26
0.0995 -0.0960634 0.0482527 204 26 26
0.0995 -0.0434016 -0.00431641 204 26 26
0.0995 0.0399095 -0.0421293 204 26 26
0.0995 0.0601895 -0.0485526 204 26 26
0.0995 -0.0408136 -0.048098 204 26 26
0.0995 0.0754171 -0.023067 204 26 26
0.0995 -0.0573592 -0.0185078 204 26 26
0.0995 -0.0183526 -0.0323151 204 26 26
0.0995 0.0420178 -0.0276958 204 26 26
0.0995 -0.0630618 0.0421386 204 26 26
0.0995 0.0752631 0.0191777 204 26 26
0.0995 -0.063063 -0.0205096 204 26 26
0.0995 0.0314616 0.0197622 204 26 26
0.0995 0.0283694 -0.0494431 204 26 26
0.0995 -0.0283686 -0.0267888 204 26 26
0.0995 -0.0158631 0.0103531 204 26 26
0.0995 -0.0155109 0.00404744 204 26 26
0.0995 -0.0518001 0.0311663 204 26 26
0.0995 -0.0525983 -0.00405002 204 26 26
0.0995 0.0733768 -0.00244195 204 26 26
0.0995 0.0298309 -0.0328866 204 26 26
0.0995 0.0655364 -0.0254971 204 26 26
0.0995 0.0884455 0.0241269 204 26 26
0.0995 0.0886068 0.0132097 204 26 26
0.0995 -0.0517417 -0.047626 204 26 26
0.0995 0.0636782 0.0202668 204 26 26
0.0995 -0.0256484 -0.0366299 204 26 26
0.0995 -0.0379442 0.0112191 204 26 26
0.0995 -0.0201318 -0.00377349 204 26 26
0.0995 0.0161864 0.00369072 204 26 26
0.0995 -0.0823311 0.0183252 204 26 26
0.0995 0.0424272 -0.0100139 204 26 26
0.0995 0.0282347 0.032528 204 26 26
0.0995 -0.0188974 -0.00692093 204 26 26
0.0995 0.0874323 -0.00373676 204 26 26
0.0995 -0.0559316 0.00931322 204 26 26
0.0995 0.0251404 0.0389314 204 26 26
0.0995 -0.0731459 -0.0389563 204 26 26
0.0995 0.0175238 -0.0155509 204 26 26
0.0995 0.0324225 -0.0371327 204 26 26
0.0995 -0.0752222 -0.0438663 204 26 26
0.0995 0.0676537 -0.0439081 204 26 26
0.0995 0.0756748 0.0346174 204 26 26
0.0995 -0.0753444 -0.00701563 204 26 26
0.0995 0.0345645 -5.10547e-05 204 26 26
0.0995 -0.0453735 0.0420128 204 26 26
0.0995 -0.00937295 0.0308617 204 26 26
0.0995 0.0889637 -0.0111784 204 26 26
0.0995 0.092662 -0.0301638 204 26 26
0.0995 0.058963 0.018963 204 26 26
0.0995 0.0338261 -0.0469458 204 26 26
0.0995 -0.0579341 -0.00565116 204 26 26
0.0995 0.0607835 -0.00127966 204 26 26
0.0995 0.0142538 -0.0161658 204 26 26
0.0995 -0.00232506 -0.0351503 204 26 26
0.0995 0.0357482 -0.0245432 204 26 26
0.0995 0.0567977 -0.0487165 204 26 26
0.0995 -0.0227648 0.0242672 204 26 26
0.0995 -0.0628877 0.0223574 204 26 26
0.0995 0.0747067 0.0150215 204 26 26
0.0995 0.0799276 0.0233397 204 26 26
0.0995 -0.0538043 0.00497519 204 26 26
0.0995 0.091962 -0.0218525 204 26 26
0.0995 0.00956405 0.0334267 204 26 26
0.0995 -0.0382783 0.000139944 204 26 26
0.0995 0.0555725 0.0324688 204 26 26
0.0995 -0.0595084 -0.0270906 204 26 26
0.0995 -0.0156007 -0.0278605 204 26 26
0.0995 0.00619483 0.00572154 204 26 26
0.0995 -0.0272074 -0.0232832 204 26 26
0.0995 0.0661212 -0.0494801 204 26 26
0.0995 -0.022416 -0.0086723 204 26 26
0.0995 -0.0472988 -0.0284 204 26 26
0.0995 -0.0133688 0.00501915 204 26 26
0.0995 -0.0302979 0.0296024 204 26 26
0.0995 -0.0967208 -0.0493264 204 26 26
0.0995 0.0874209 0.00927923 204 26 26
0.0995 0.0427148 0.0230205 204 26 26
0.0995 0.00785014 -0.046351 204 26 26
0.0995 -0.0626149 -0.0305413 204 26 26
0.0995 0.0684011 -0.0381824 204 26 26
0.0995 -0.0937075 -0.0133967 204 26 26
0.0995 -0.0179444 0.00476349 204 26 26
0.0995 0.0490775 -0.0418596 204 26 26
0.0995 -0.04799 0.0262323 204 26 26
0.0995 -0.0891388 0.0168874 204 26 26
0.0995 0.0142466 0.019101 204 26 26
0.0995 -0.0483271 0.00469925 204 26 26
0.0995 0.0540196 -0.0488318 204 26 26
0.0995 0.0427182 -0.0262963 204 26 26
0.0995 -0.0835237 0.0207942 204 26 26
0.0995 -0.092351 0.0121287 204 26 26
0.0995 0.0766156 0.00851685 204 26 26
0.0995 -0.0292894 -0.0310443 204 26 26
0.0995 -0.0776595 -0.0030653 204 26 26
0.0995 0.0200969 0.00387239 204 26 26
0.0995 0.0221115 -0.0138673 204 26 26
0.0995 -0.0296731 -0.00276789 204 26 26
0.0995 0.0267278 0.0283667 204 26 26
0.0995 0.0098643 -0.0275755 204 26 26
0.0995 -0.043329 -0.0119414 204 26 26
0.0995 0.0529186 -0.0407737 204 26 26
0.0995 -0.0251563 0.0252775 204 26 26
0.0995 -0.0908688 -0.0437279 204 26 26
0.0995 -0.0494441 0.000614283 204 26 26
0.0995 -0.0122523 -0.0364581 204 26 26
0.0995 -0.0964214 -0.0184042 204 26 26
0.0995 -0.0578675 -0.0296786 204 26 26
0.0995 -0.0923758 0.0418076 204 26 26
0.0995 -0.0782968 -0.0365568 204 26 26
0.0995 -0.0924763 0.000285902 204 26 26
0.0995 0.0207043 -0.00934969 204 26 26
0.0995 -0.0599175 -0.0145349 204 26 26
0.0995 -0.00462794 0.0124829 204 26 26
0.0995 0.0108303 0.0377514 204 26 26
0.0995 0.0867265 0.0363591 204 26 26
0.0995 -0.0970775 -0.0224961 204 26 26
0.0995 -0.0895879 -0.0385655 204 26 26
0.0995 0.0582998 -0.0459255 204 26 26
0.0995 -0.0582681 0.0412485 204 26 26
0.0995 0.0662883 -0.0312743 204 26 26
0.0995 0.0917448 0.0392782 204 26 26
0.0995 0.0674593 -0.0205504 204 26 26
0.0995 -0.0554245 -0.0474906 204 26 26
0.0995 0.0506871 0.0155443 204 26 26
0.0995 -0.0459554 0.0273842 204 26 26
0.0995 -0.0252978 -0.0440562 204 26 26
0.0995 0.0194242 0.0039303 204 26 26
0.0995 0.0222109 0.0148107 204 26 26
0.0995 0.04608 0.0431515 204 26 26
0.0995 -0.0239021 -0.0297261 204 26 26
0.0995 -0.087495 0.0404045 204 26 26
0.0995 0.0442836 -0.0266374 204 26 26
0.0995 -0.086468 -0.0342202 204 26 26
0.0995 -0.0658703 -0.0288698 204 26 26
0.0995 0.0331777 0.0288339 204 26 26
0.0995 0.0757518 0.0192551 204 26 26
0.0995 0.0978854 0.00603814 204 26 26
0.0995 0.0404209 -0.0385619 204 26 26
0.0995 -0.0881808 -0.0365774 204 26 26
0.0995 0.072095 -0.0015247 204 26 26
0.0995 0.0221017 -0.0220245 204 26 26
0.0995 -0.0173892 -0.00918787 204 26 26
0.0995 -0.0847631 -0.00470762 204 26 26
0.0995 0.0687055 -0.046896 204 26 26
0.0995 -0.00286993 -0.0169593 204 26 26
0.0995 0.0117924 -0.0264199 204 26 26
0.0995 -0.073813 -0.00853151 204 26 26
0.0995 0.079431 -0.0168393 204 26 26
0.0995 0.0453675 0.0308265 204 26 26
-0.0457286 0.0995 0.00497635 204 26 26
-0.0416263 0.0995 -0.0411117 204 26 26
-0.0773245 0.0995 -0.0336241 204 26 26
-0.0464883 0.0995 -0.00940558 204 26 26
0.0276679 0.0995 -0.00613434 204 26 26
-0.0216465 0.0995 0.00939284 204 26 26
-0.0663345 0.0995 0.0335706 204 26 26
0.00484494 0.0995 -0.0288024 204 26 26
0.0511223 0.0995 -0.0299038 204 26 26
0.0538212 0.0995 0.000817202 204 26 26
-0.0462852 0.0995 -0.0361636 204 26 26
-0.0632727 0.0995 -0.0144378 204 26 26
0.015063 0.0995 0.0213984 204 26 26
-0.0278908 0.0995 0.0262471 204 26 26
0.084616 0.0995 0.0332639 204 26 26
0.0602464 0.0995 -0.0134149 204 26 26
0.0240929 0.0995 -0.0365021 204 26 26
-0.0638759 0.0995 0.0103065 204 26 26
-0.0275311 0.0995 0.00620846 204 26 26
-0.068218 0.0995 0.0437083 204 26 26
-0.0949137 0.0995 0.0152545 204 26 26
-0.0281428 0.0995 -0.00048824 204 26 26
-0.0262192 0.0995 0.0211017 204 26 26
-0.0200484 0.0995 -0.0272102 204 26 26
0.0612333 0.0995 -0.0338245 204 26 26
0.0871582 0.0995 0.0247073 204 26 26
0.00935518 0.0995 -0.0252321 204 26 26
-0.0877076 0.0995 -0.00521104 204 26 26
-0.0186124 0.0995 -0.0467848 204 26 26
-0.0556625 0.0995 -0.0405938 204 26 26
0.0185079 0.0995 -0.0113331 204 26 26
0.0658909 0.0995 0.0380582 204 26 26
0.0865329 0.0995 0.0299305 204 26 26
-0.0657731 0.0995 0.0100567 204 26 26
0.0125591 0.0995 0.00349399 204 26 26
0.0242649 0.0995 -0.0134501 204 26 26
-0.0156515 0.0995 0.0369559 204 26 26
-0.0219846 0.0995 -0.033462 204 26 26
0.0727357 0.0995 0.0221116 204 26 26
-0.0682085 0.0995 -0.0326671 204 26 26
-0.00123522 0.0995 0.0468374 204 26 26
-0.00443904 0.0995 -0.000645501 204 26 26
0.0667586 0.0995 0.0196285 204 26 26
-0.046612 0.0995 -0.0477093 204 26 26
0.00771462 0.0995 -0.0487679 204 26 26
0.0956957 0.0995 -0.0311866 204 26 26
-0.0381821 0.0995 -0.0442224 204 26 26
-0.0473862 0.0995 0.00319176 204 26 26
-0.085475 0.0995 -0.0479521 204 26 26
0.00466789 0.0995 -0.0417491 204 26 26
0.021595 0.0995 0.0164836 204 26 26
-0.0414669 0.0995 -0.0421407 204 26 26
-0.0678848 0.0995 0.0242496 204 26 26
-0.0416476 0.0995 -0.0200307 204 26 26
0.0108961 0.0995 -0.0158245 204 26 26
0.0518729 0.0995 -0.0327663 204 26 26
0.0832973 0.0995 -0.0169123 204 26 26
-0.0853724 0.0995 -0.0097974 204 26 26
-0.0352954 0.0995 -0.0163155 204 26 26
-0.0901173 0.0995 0.0117968 204 26 26
0.0279619 0.0995 -0.0432106 204 26 26
-0.0399018 0.0995 0.00497546 204 26 26
0.0383438 0.0995 0.0353084 204 26 26
-0.0247066 0.0995 -0.0386358 204 26 26
0.025364 0.0995 -0.0085431 204 26 26
-0.0569085 0.0995 -0.000335062 204 26 26
-0.0418706 0.0995 0.0456631 204 26 26
0.0496544 0.0995 0.0198091 204 26 26
0.093759 0.0995 0.024031 204 26 26
0.0972596 0.0995 0.0217914 204 26 26
-0.0609174 0.0995 -0.00337084 204 26 26
-0.0814334 0.0995 0.0278704 204 26 26
-0.0503361 0.0995 -0.0409418 204 26 26
0.0178676 0.0995 -0.0243253 204 26 26
0.04225 0.0995 0.0228291 204 26 26
-0.0365124 0.0995 -0.0177907 204 26 26
-0.022347 0.0995 0.0492734 204 26 26
0.0392865 0.0995 -0.00601633 204 26 26
0.0658549 0.0995 0.0327487 204 26 26
-0.00869521 0.0995 0.00485966 204 26 26
-0.0119241 0.0995 -0.00299025 204 26 26
-0.0128856 0.0995 0.0330172 204 26 26
-0.0378809 0.0995 0.0390972 204 26 26
0.0679998 0.0995 0.0450993 204 26 26
-0.0783101 0.0995 -0.0386893 204 26 26
-2.60186e-05 0.0995 0.0119286 204 26 26
-0.060924 0.0995 0.00389876 204 26 26
0.093805 0.0995 0.0150161 204 26 26
-0.0768287 0.0995 0.00775772 204 26 26
-0.0627032 0.0995 -0.0482021 204 26 26
-0.0879417 0.0995 0.0215792 204 26 26
0.0247624 0.0995 -0.0128617 204 26 26
0.0625232 0.0995 0.0372398 204 26 26
-0.0665874 0.0995 -0.0272407 204 26 26
0.0177165 0.0995 -0.01137 204 26 26
-0.00936695 0.0995 0.00806902 204 26 26
0.0282645 0.0995 -0.0306473 204 26 26
-0.0405259 0.0995 0.0157466 204 26 26
-0.0262573 0.0995 -0.032152 204 26 26
0.029038 0.0995 -0.0193649 204 26 26
-0.0274102 0.0995 -0.0310403 204 26 26
-0.0813744 0.0995 -0.00575013 204 26 26
-0.0215935 0.0995 -0.0328129 204 26 26
-0.0330568 0.0995 0.0329238 204 26 26
-0.0473552 0.0995 -0.0107498 204 26 26
-0.0499943 0.0995 0.0174462 204 26 26
-0.00771701 0.0995 -0.0494955 204 26 26
-0.0887258 0.0995 0.0407165 204 26 26
-0.0239007 0.0995 0.0102703 204 26 26
-0.0575597 0.0995 0.0421245 204 26 26
-0.00833264 0.0995 0.0283894 204 26 26
-0.0558658 0.0995 -0.00579361 204 26 26
-0.0435734 0.0995 0.00415585 204 26 26
0.0691973 0.0995 0.016188 204 26 26
0.0893002 0.0995 -0.0189629 204 26 26
0.0917478 0.0995 0.00913176 204 26 26
-0.094464 0.0995 0.0383594 204 26 26
0.0981706 0.0995 0.0232052 204 26 26
-0.0656589 0.0995 -0.00625853 204 26 26
-0.0880151 0.0995 0.0398431 204 26 26
0.00694334 0.0995 0.0489547 204 26 26
0.0772523 0.0995 0.0201042 204 26 26
-0.0216037 0.0995 0.0033166 204 26 26
-0.0267435 0.0995 0.0224332 204 26 26
0.0817489 0.0995 -0.0386288 204 26 26
-0.0702092 0.0995 0.015607 204 26 26
-0.0391404 0.0995 0.0265061 204 26 26
-0.0763658 0.0995 -0.0382127 204 26 26
0.0634077 0.0995 0.0304392 204 26 26
-0.0603909 0.0995 0.0355227 204 26 26
-4.73037e-05 0.0995 -0.0199508 204 26 26
0.0201032 0.0995 -0.0213034 204 26 26
0.0462142 0.0995 -0.00493075 204 26 26
-0.00842923 0.0995 0.000938305 204 26 26
-0.0220593 0.0995 0.000109436 204 26 26
-0.0429856 0.0995 0.029074 204 26 26
